ply
format ascii 1.0
comment VCGLIB generated
element vertex 791
property float x
property float y
property float z
property float nx
property float ny
property float nz
element face 0
property list uchar int vertex_indices
end_header
11.38075 5.97225 -5.548349 -0.5343791 -0.4872887 0.6906437 
11.38075 5.89888 -5.54865 -0.4998977 -0.3807333 0.7779104 
11.39375 5.82626 -5.62105 -0.420602 -0.3269289 0.8462928 
11.40035 5.75337 -5.657351 -0.8711562 -0.3275861 0.3657518 
11.39375 5.67966 -5.62155 -0.8878891 -0.04209519 0.4581277 
-3.51205 4.67645 10.13345 -0.9759001 0.09759002 -0.19518 
-3.51205 4.67645 10.13345 -0.9759001 0.09759002 -0.19518 
-3.51205 4.67645 10.13345 -0.9759001 0.09759002 -0.19518 
11.49775 5.395602 -6.19535 -0.9543498 -0.2917215 -0.06414956 
11.67605 5.339438 -7.17825 -0.5300835 0.3361739 0.7784591 
11.67605 5.26758 -7.17855 -0.5949761 -0.1689994 0.7857752 
11.67605 5.195723 -7.17875 -0.4395299 -0.3991312 0.8046787 
11.68865 5.125228 -7.24825 -0.1667088 -0.6734961 0.7201467 
11.69485 5.054147 -7.28305 -0.004682353 -0.5361394 0.8441164 
11.72615 4.986099 -7.45575 -0.282611 0.395209 -0.8740371 
11.71365 4.91295 -7.38705 -0.08974946 -0.5920632 -0.8008784 
11.70735 4.840478 -7.352851 0.175473 -0.5502155 -0.8163775 
11.70105 4.767941 -7.318551 0.2492088 -0.5294057 -0.8109405 
11.69485 4.69534 -7.284249 -0.08267929 -0.02233423 -0.9963259 
11.70105 4.624483 -7.319049 -0.5881384 0.1809932 -0.7882479 
11.70105 4.552753 -7.319249 -0.586815 0.1152145 -0.8014822 
11.70735 4.481992 -7.354051 -0.5462475 0.07249307 -0.8344809 
11.70105 4.409294 -7.319749 -0.400045 -0.07661507 -0.9132875 
11.69475 4.336532 -7.285449 -0.2797959 -0.4073319 -0.8693647 
11.68845 4.263705 -7.251149 -0.2954119 -0.2466657 -0.9229777 
11.68215 4.190813 -7.21675 -0.2487793 -0.1875448 -0.9502293 
11.68845 4.120118 -7.251649 -0.4831968 0.354074 -0.80072 
11.70095 4.050648 -7.320951 -0.3419329 0.144024 -0.9286221 
11.70095 3.978918 -7.32125 -0.4410853 -0.07391284 -0.8944164 
11.70095 3.907189 -7.32145 -0.4983047 -0.06323107 -0.8646932 
11.70095 3.835459 -7.32175 -0.5370961 0.1491698 -0.8302266 
11.70095 3.76373 -7.32195 -0.520455 0.1865721 -0.8332572 
11.70715 3.693321 -7.35675 -0.4550171 -0.09213948 -0.885703 
11.70085 3.62027 -7.32245 -0.4146118 -0.5495358 -0.7253327 
11.67575 3.54299 -7.18435 -0.2889822 0.189225 0.9384472 
11.67575 3.47114 -7.184548 -0.2940525 -0.1711738 0.9403365 
11.68205 3.40073 -7.219451 -0.1904767 -0.5711831 0.7984162 
11.69455 3.33187 -7.28885 -0.09963686 -0.6497812 0.7535629 
11.69455 3.26011 -7.28905 0.02148241 -0.730422 0.6826583 
11.71955 3.19452 -7.42735 -0.4691773 0.4497606 -0.7599922 
11.71955 3.12289 -7.42755 0.09324782 -0.3915697 -0.9154114 
11.71335 3.04965 -7.39335 -0.7110155 0.2826456 0.6438701 
11.70075 2.97471 -7.32455 -0.6815408 -0.02197588 0.73145 
11.71325 2.90632 -7.393849 -0.6404009 0.002838349 0.7680356 
11.70705 2.83295 -7.35955 0.2698199 -0.4753213 -0.8374169 
11.70075 2.75952 -7.325349 0.2087995 -0.5625358 -0.7999726 
11.68815 2.68425 -7.25645 -0.0572966 -0.5773029 -0.8145174 
11.68185 2.61065 -7.222049 -0.2029221 -0.5015286 -0.8410063 
11.66925 2.53514 -7.15305 -0.3229532 -0.2311622 -0.9177501 
11.66925 2.46325 -7.153251 -0.2293897 0.2016447 -0.9522184 
11.68185 2.39517 -7.22285 -0.338614 0.6695031 -0.66114 
11.70695 2.33107 -7.361251 -0.5391603 0.2970205 -0.7880895 
11.71315 2.26133 -7.395951 -0.0535817 -0.01176829 -0.9984942 
11.70685 2.18768 -7.361749 0.05023462 -0.06880819 -0.9963644 
11.70685 2.11598 -7.36205 -0.2988076 0.2350041 0.9249255 
11.70055 2.04222 -7.32775 0.2493937 -0.3746139 -0.8930101 
11.69435 1.9684 -7.29345 -0.2780177 0.4307816 0.8585648 
11.68805 1.89452 -7.259049 0.2697654 -0.4433711 -0.85478 
11.68175 1.82057 -7.22475 0.05616755 -0.4004835 -0.9145809 
11.67545 1.74655 -7.190351 -0.1955952 0.08162654 -0.9772817 
11.68165 1.67692 -7.225251 -0.1328644 0.3902493 -0.9110722 
11.68795 1.60734 -7.260049 -0.1027415 0.3187134 -0.9422663 
11.69425 1.53784 -7.29485 -0.01418247 -0.1873572 -0.9821895 
11.68165 1.46144 -7.225949 -0.04227193 -0.4440772 -0.8949908 
11.67535 1.38726 -7.19155 0.01421214 -0.2589127 -0.9657962 
11.67535 1.3154 -7.191751 0.140702 -0.001724664 -0.9900505 
11.68165 1.24596 -7.226649 -0.2310345 -0.1687176 0.9582053 
11.68165 1.174139 -7.226951 0.1998838 0.1689227 -0.9651484 
11.68155 1.102309 -7.227151 -0.2861198 -0.2467201 0.9258859 
11.68785 1.033 -7.261949 -0.2574786 -0.2535293 0.932431 
11.69415 0.9637396 -7.296849 -0.3634414 0.09301386 0.9269621 
11.68785 0.8894098 -7.26245 -0.3685178 0.3852005 0.8460587 
11.67525 0.8123999 -7.19345 -0.4676718 0.2335795 0.8524809 
11.67525 0.7405398 -7.193749 -0.3278152 0.0115891 0.9446708 
11.67525 0.6686797 -7.19395 -0.2344114 -0.1818145 0.9549842 
11.68155 0.5995297 -7.22885 -0.2364606 -0.1173183 0.9645324 
11.68145 0.5277095 -7.229051 0.2259332 0.0005539823 -0.9741427 
11.68145 0.4558797 -7.22935 -0.3367187 -0.0006490691 0.9416051 
11.68145 0.3840499 -7.22955 -0.2937371 -0.1699918 0.9406494 
11.68775 0.3150597 -7.264451 -0.3253705 -0.2470247 0.9127502 
11.68775 0.2432699 -7.264649 -0.3901962 -0.002774285 0.9207275 
11.68775 0.1714697 -7.26485 -0.390094 -0.002936587 0.9207703 
11.68765 0.09967947 -7.265149 -0.2664922 0.08204567 0.9603387 
11.68765 0.02788973 -7.265351 0.1847271 -0.08348939 -0.9792372 
11.68765 -0.0439105 -7.265649 0.1458056 0.159387 -0.9763895 
11.69395 -0.1126804 -7.30045 -0.05601002 0.06078893 -0.996578 
11.69395 -0.1844401 -7.300651 0.03265205 -0.4754126 -0.8791568 
11.67505 -0.2654705 -7.19715 0.09126285 -0.5541384 -0.8274066 
11.67505 -0.3373303 -7.197351 -0.3168832 -0.08400071 0.9447376 
11.67505 -0.4091902 -7.197549 -0.3344785 -0.0836346 0.938685 
11.67505 -0.4810405 -7.19785 -0.3903134 -0.003210567 0.9206765 
11.67505 -0.5529003 -7.19805 -0.3233463 0.1608139 0.932516 
11.66865 -0.6280203 -7.16365 0.1327289 0.143316 -0.9807362 
11.68125 -0.6933303 -7.23315 -0.5579441 -0.3869389 0.7341503 
11.67495 -0.7684703 -7.19875 -0.5115765 -0.1373413 0.8481904 
11.68755 -0.8336401 -7.26825 -0.4028344 0.2167795 0.8892307 
11.67495 -0.91219 -7.19925 0.1497265 -0.3481209 -0.9254155 
11.67495 -0.9840503 -7.19955 0.06948464 0.1710362 -0.9828116 
11.68115 -1.05246 -7.234349 -0.1298593 0.2629634 -0.9560266 
11.68115 -1.12429 -7.234651 -0.1942654 0.3974185 -0.8968386 
11.68745 -1.1926 -7.26945 -0.1137019 -0.07305824 -0.9908251 
11.67485 -1.271481 -7.20045 -0.7636993 0.1739232 0.6217026 
11.67485 -1.34334 -7.200749 -0.5943251 -0.0733658 0.8008715 
11.67485 -1.4152 -7.20095 -0.4280659 -0.2755213 0.860725 
11.68115 -1.48341 -7.235848 0.08941563 0.1725971 -0.9809256 
11.67485 -1.55891 -7.201449 -0.03642468 0.1876355 -0.9815632 
11.68735 -1.62336 -7.270951 -0.004992178 0.1757224 -0.9844271 
11.68735 -1.69516 -7.27115 0.2348082 0.1217407 -0.9643881 
11.68105 -1.77072 -7.23685 -0.5693469 0.3030749 0.7641922 
11.67475 -1.84634 -7.202449 -0.7381495 -0.02478261 0.6741819 
11.67475 -1.9182 -7.202649 -0.52683 -0.1633022 0.8341358 
11.68105 -1.986191 -7.23755 -0.3500142 -0.07854007 0.933446 
11.67475 -2.06192 -7.203149 0.1954672 -0.0824062 -0.977242 
11.67475 -2.13377 -7.203349 0.1853394 -0.0841671 -0.9790635 
11.67475 -2.20563 -7.20365 -0.2672189 0.0824438 0.9601026 
11.67465 -2.27749 -7.203851 -0.3066562 -0.0006946745 0.9518201 
11.67465 -2.34935 -7.20415 -0.2667566 0.08275233 0.9602047 
11.67465 -2.4212 -7.20435 0.1850345 -0.08454408 -0.9790887 
11.67465 -2.49306 -7.204551 0.2230885 0.0841326 -0.9711608 
11.67465 -2.56492 -7.20485 0.244188 0.08420964 -0.9660646 
11.67465 -2.63678 -7.205049 -0.3066804 -0.000660303 0.9518123 
11.67465 -2.70864 -7.20535 -0.3066323 -0.0003545769 0.951828 
11.67455 -2.78049 -7.20555 -0.3168173 -0.082652 0.9448785 
11.68085 -2.8481 -7.240449 -0.3853035 0.001276969 0.922789 
11.67455 -2.92421 -7.20605 -0.3833095 0.08128453 0.9200362 
11.67455 -2.99607 -7.20625 -0.3548332 0.08115302 0.9314009 
11.67455 -3.067921 -7.20655 -0.2357192 0.1616854 0.9582768 
11.66825 -3.14416 -7.17205 -0.2658551 -0.0827138 0.960458 
11.67455 -3.21164 -7.20695 0.1818551 0.2524115 -0.9503774 
11.67455 -3.283501 -7.20725 -0.2671036 0.001308821 0.9636669 
11.67445 -3.35536 -7.20745 -0.2790408 0.004929446 0.9602666 
11.68075 -3.42271 -7.242349 -0.4113325 -0.2617709 0.8730875 
11.68705 -3.49 -7.27715 0.216181 0.2802338 -0.9352726 
11.68705 -3.56179 -7.27745 -0.2555016 0.1714452 0.951486 
11.67445 -3.64279 -7.208451 -0.2512231 0.3332056 0.908769 
11.67445 -3.71464 -7.20865 -0.390045 -0.002889132 0.9207913 
11.67445 -3.786501 -7.208949 -0.3354358 0.08109396 0.9385662 
11.67445 -3.85836 -7.209149 -0.2267538 0.08316136 0.9703953 
11.67435 -3.930221 -7.209451 0.2227966 0.08393622 -0.9712448 
11.67435 -4.002081 -7.209649 -0.3542365 -0.08241918 0.9315168 
11.67435 -4.073931 -7.209849 -0.3900272 -0.002910555 0.9207988 
11.67435 -4.14579 -7.210151 -0.3549079 0.08163314 0.9313305 
11.67435 -4.21765 -7.210351 0.185766 -0.08472157 -0.9789348 
11.67435 -4.289511 -7.210649 0.1210084 0.0003803521 -0.9926514 
11.67435 -4.36137 -7.210849 0.246466 0.2604162 -0.9335085 
11.68055 -4.42826 -7.245751 -0.3936817 -0.07614034 0.916088 
11.67425 -4.50508 -7.21135 -0.4157307 0.1587452 0.8955266 
11.67425 -4.576941 -7.211549 -0.3353699 0.08132016 0.9385703 
11.67425 -4.648801 -7.21185 -0.1955642 0.2438897 0.9498802 
11.66795 -4.72574 -7.177449 0.1334857 -0.08964247 -0.9869882 
11.66795 -4.79763 -7.177649 0.1018113 -0.08785085 -0.9909171 
11.66795 -4.86952 -7.17785 0.1627028 -0.005235766 -0.9866613 
11.66795 -4.94141 -7.178149 0.1544718 0.1690647 -0.9734247 
11.66785 -5.0133 -7.178349 0.2499382 0.168649 -0.9534613 
11.67415 -5.079941 -7.21325 -0.3536914 0.01201044 0.9352851 
11.66785 -5.15708 -7.178849 -0.4576658 0.1790385 0.8709117 
11.66785 -5.228971 -7.179151 -0.3908495 0.1648913 0.9055648 
11.66785 -5.30086 -7.179351 0.06427313 -0.1427337 -0.987672 
11.66155 -5.37815 -7.14495 -0.01953249 -0.4526128 -0.8914933 
11.65525 -5.45545 -7.11045 -0.05431407 -0.2992354 -0.9526322 
11.65515 -5.527451 -7.11065 -0.09628153 -0.1243915 -0.9875509 
11.65515 -5.599351 -7.11095 0.06951264 0.2772922 -0.9582677 
11.65515 -5.67135 -7.11115 0.1989239 0.08589232 -0.9762437 
11.65515 -5.74335 -7.11135 -0.4361386 0.08032524 0.8962874 
11.65515 -5.81525 -7.11165 -0.4597773 0.07785296 0.8846151 
11.64885 -5.892851 -7.077149 -0.6996136 0.05958016 0.712033 
-3.51205 4.67645 10.13345 -0.9759001 0.09759002 -0.19518 
-3.51205 4.67645 10.13345 -0.9759001 0.09759002 -0.19518 
-3.51205 4.67645 10.13345 -0.9759001 0.09759002 -0.19518 
11.13835 -6.645651 -4.268351 -0.5968937 -0.3298298 0.7313893 
11.14515 -6.71405 -4.305949 -0.8301382 -0.1912345 0.5237365 
11.13835 -6.79485 -4.268849 -0.7416564 0.02594681 0.6702779 
11.13835 -6.869451 -4.26915 -0.6784686 0.2479336 0.6915268 
11.13155 -6.95035 -4.23205 -0.5011501 0.1730585 0.8478794 
11.12475 -7.031351 -4.19485 0.3531355 0.2979016 -0.8868766 
11.13155 -7.09965 -4.23255 0.162953 0.6493937 -0.7427881 
11.15185 -7.15505 -4.34465 0.07527038 0.5902448 -0.8037074 
11.15855 -7.22315 -4.382151 0.1267534 0.1871242 -0.9741243 
11.15855 -7.29765 -4.382449 -0.04696132 -0.009724425 -0.9988494 
11.15855 -7.37215 -4.382649 -0.0751708 -0.1037293 -0.9917608 
11.15175 -7.45315 -4.34565 0.09862486 -0.1525974 -0.9833551 
11.15175 -7.527651 -4.34595 0.2121367 -0.1865971 -0.9592599 
11.15175 -7.602151 -4.34615 0.219576 -0.003698834 -0.9755884 
11.15175 -7.67675 -4.346449 0.221193 0.1747975 -0.9594371 
11.15845 -7.744551 -4.383949 0.1599399 0.1337391 -0.9780251 
11.15845 -7.819051 -4.38415 0.23657 -0.02527721 -0.9712856 
11.15165 -7.90025 -4.34715 0.2643521 -0.05880573 -0.9626318 
11.22315 7.60105 -4.266049 0.1916967 0.05269031 -0.9800388 
11.22315 7.52652 -4.266249 0.390067 0.002777355 -0.9207823 
11.22315 7.452 -4.26655 0.3898983 0.002968629 -0.9208531 
11.22305 7.37747 -4.266749 0.3477101 0.09310614 -0.9329678 
11.22305 7.30294 -4.26705 -0.4009566 -0.2372842 0.8848334 
10.96255 7.23884 -2.824649 -0.3277904 0.3422112 -0.8805936 
10.94855 7.16346 -2.747549 -0.6267819 0.4166192 -0.6584626 
10.94855 7.08753 -2.74785 -0.758585 0.1425312 -0.6357937 
10.96945 7.01108 -2.86405 -0.7000884 0.421054 -0.5767061 
10.94855 6.93565 -2.748349 -0.7813578 0.2641386 -0.5654297 
-3.51205 4.67645 10.13345 -0.9759001 0.09759002 -0.19518 
-3.51205 4.67645 10.13345 -0.9759001 0.09759002 -0.19518 
-3.51205 4.67645 10.13345 -0.9759001 0.09759002 -0.19518 
-3.51205 4.67645 10.13345 -0.9759001 0.09759002 -0.19518 
-3.51205 4.67645 10.13345 -0.9759001 0.09759002 -0.19518 
11.43525 6.48557 -5.44565 -0.4521554 0.1591892 0.8776186 
11.43525 6.41213 -5.445951 -0.4521554 0.1591893 0.8776186 
11.42875 6.33856 -5.40995 0.4602998 -0.254378 -0.8505386 
11.42215 6.26491 -5.37395 0.3155126 -0.5402088 -0.780145 
11.40905 6.19099 -5.30155 0.2350931 -0.4245633 -0.8743439 
11.40905 6.11742 -5.301849 -0.3440423 -0.2431894 0.9069145 
11.42215 6.0444 -5.374649 -0.4026112 -0.5761652 0.7112932 
11.44825 5.97214 -5.51975 -0.6084433 -0.5786508 0.5431023 
11.44825 5.89877 -5.52005 -0.4450114 -0.362921 0.8186899 
11.46125 5.82615 -5.59245 -0.4541843 -0.4164547 0.78758 
11.45475 5.75244 -5.55665 -0.9160587 0.2098284 0.3417729 
11.42865 5.67733 -5.412149 -0.8824651 0.2595275 0.3923021 
11.41545 5.602909 -5.339849 0.1113258 0.2060283 -0.9721929 
11.41545 5.529372 -5.340149 -0.05404683 0.2364364 -0.9701427 
-3.51205 4.67645 10.13345 -0.9759001 0.09759002 -0.19518 
-3.51205 4.67645 10.13345 -0.9759001 0.09759002 -0.19518 
-3.51205 4.67645 10.13345 -0.9759001 0.09759002 -0.19518 
11.73595 5.266856 -7.11575 -0.660899 -0.2303637 0.7142445 
11.73595 5.194966 -7.11605 -0.5483994 -0.2653807 0.7929887 
11.74845 5.12444 -7.185649 -0.3291681 -0.584832 0.7413635 
11.76715 5.054753 -7.289651 -0.3283759 0.6385306 -0.696023 
11.79205 4.985994 -7.427751 -0.2691985 0.5830895 -0.7665109 
11.79205 4.914392 -7.42805 0.06484319 -0.6628467 -0.7459421 
11.76715 4.839565 -7.290351 -0.4799661 0.3280676 0.8136364 
11.76715 4.767835 -7.290551 -0.3034979 0.1098381 0.9464802 
11.76085 4.695233 -7.256249 -0.1864373 0.1302634 -0.9737929 
11.79205 4.627986 -7.428948 -0.6246535 0.3044142 -0.7191245 
11.77955 4.554518 -7.360351 -0.6690712 0.164193 -0.724834 
11.79195 4.484784 -7.42945 -0.6540539 -0.02287419 -0.756102 
11.77955 4.411187 -7.360848 -0.5630358 -0.2270627 -0.7946278 
11.77955 4.339522 -7.361051 -0.6462712 -0.3746558 -0.6648057 
11.76705 4.26573 -7.292251 -0.5292703 -0.1043798 -0.8420082 
11.76705 4.194 -7.29255 -0.5653567 0.1183511 -0.8163117 
11.77945 4.124526 -7.361749 -0.6440029 0.2548113 -0.7213401 
11.77945 4.05286 -7.36205 -0.6936703 0.1002149 -0.7132871 
11.77945 3.981195 -7.36225 -0.6329416 -0.05229097 -0.7724316 
11.77325 3.908307 -7.32805 -0.5665519 0.03883214 -0.8231106 
11.77945 3.837864 -7.36275 -0.6326001 0.09745452 -0.7683227 
11.78565 3.767485 -7.39745 -0.5890701 0.1136135 -0.8000552 
11.78565 3.695851 -7.397651 -0.3609395 -0.2829018 -0.8886446 
11.77315 3.62152 -7.32895 -0.2902006 -0.5746213 -0.7652411 
11.74815 3.54428 -7.190949 0.07044148 -0.2171742 -0.9735879 
11.74185 3.47103 -7.156549 0.1040118 -0.1000873 -0.9895272 
11.74815 3.40062 -7.191449 -0.302804 -0.426253 0.852419 
11.76065 3.33177 -7.26085 0.02112905 -0.7597185 0.6499087 
11.77935 3.26454 -7.36465 -0.4348749 0.6457804 -0.627576 
11.80415 3.19903 -7.502549 -0.4941826 0.2801302 -0.8229888 
11.78555 3.12278 -7.39965 0.2316932 -0.6302559 -0.74101 
11.76685 3.046329 -7.29635 -0.3960473 0.4461592 0.8025512 
11.76685 2.9746 -7.296649 -0.594852 0.005119437 0.8038191 
11.77305 2.90454 -7.331349 -0.6111673 -0.08572711 0.7868451 
11.76675 2.83114 -7.29705 -0.5406228 0.224981 0.8106236 
11.76675 2.75941 -7.297349 0.227467 -0.3396889 -0.9126173 
11.76055 2.68591 -7.263049 0.05480596 -0.4016168 -0.9141665 
11.75425 2.61235 -7.22865 -0.3220748 -0.2411258 -0.9154923 
11.75425 2.54055 -7.22895 -0.3760128 -0.2858333 -0.8814271 
11.75425 2.46876 -7.22915 -0.424105 0.04251545 -0.9046145 
11.78535 2.40645 -7.402049 -0.223395 -0.05460075 -0.9731975 
11.77915 2.33289 -7.367749 -0.2210811 -0.2429186 -0.9445177 
11.77915 2.26123 -7.368051 -0.04395959 -0.3540235 -0.9342029 
11.77295 2.18757 -7.333749 -0.2942526 0.3150435 0.9023099 
11.77285 2.11587 -7.33405 -0.3274205 0.2360232 0.9149256 
11.76665 2.04212 -7.29975 -0.3538732 0.418731 0.8363242 
11.76035 1.9683 -7.26545 -0.353815 0.4188429 0.8362927 
11.75415 1.89441 -7.23105 -0.3483168 0.3067589 0.885762 
11.75415 1.82262 -7.231349 0.2150865 -0.1743364 -0.9609082 
11.75405 1.75083 -7.231549 -0.0408208 0.08507752 -0.9955378 
11.76035 1.68125 -7.266351 -0.0836551 0.3911258 -0.9165273 
11.76035 1.60949 -7.26665 0.05557719 0.128828 -0.9901084 
11.76035 1.53773 -7.26685 0.07729807 -0.1744387 -0.9816294 
11.76025 1.46597 -7.26715 0.06063274 -0.3228503 -0.9445059 
11.75405 1.39186 -7.232751 0.04612652 -0.334082 -0.9414147 
11.74775 1.31768 -7.19835 0.1087239 -0.09035271 -0.9899574 
11.74775 1.24586 -7.198649 0.1393674 0.08630101 -0.986473 
11.74775 1.17403 -7.19885 -0.2309695 -0.1683505 0.9582856 
11.75395 1.10468 -7.23375 -0.2308607 -0.1682123 0.9583361 
11.75395 1.03289 -7.233949 -0.3469602 -0.2492898 0.9041423 
11.75395 0.9610999 -7.23425 -0.3648509 0.1915719 0.9111444 
11.74765 0.8867295 -7.199849 -0.2987996 0.4079907 0.8627064 
11.74765 0.8148997 -7.200051 -0.2405623 0.1024006 0.9652171 
11.74765 0.7430799 -7.200349 -0.09092697 0.00339353 -0.9958518 
11.74765 0.6712499 -7.200549 -0.1079788 0.3233219 -0.9401083 
11.75385 0.6021299 -7.23545 0.01544955 0.08717421 -0.9960733 
11.74765 0.5275998 -7.201051 -0.1145194 -0.1339894 -0.9843435 
11.75385 0.4585395 -7.23595 0.1409061 -0.002695195 -0.9900193 
11.74755 0.3839498 -7.20155 0.2280239 -0.004862844 -0.9736434 
11.75385 0.3149495 -7.23635 -0.4047375 -0.08260251 0.9106945 
11.75385 0.2431598 -7.23665 -0.448277 -0.0006250959 0.8938945 
11.75385 0.1713696 -7.23685 -0.3056406 -0.1713628 0.9365995 
11.75375 0.0995698 -7.237149 -0.275507 -0.08467463 0.9575626 
11.75375 0.02778006 -7.23735 0.2260882 -0.08230621 -0.9706234 
11.75375 -0.04401064 -7.23755 -0.3544664 0.01590203 0.9349335 
11.76005 -0.1127801 -7.27245 -0.48643 -0.147213 0.8612282 
11.75995 -0.1845503 -7.272651 -0.604189 0.3621965 0.7097672 
11.74125 -0.2655802 -7.169049 -0.3545075 0.4112945 0.8397388 
11.74125 -0.3374305 -7.169351 -0.3064284 -0.001033179 0.9518932 
11.74115 -0.4092903 -7.169549 -0.3902285 -0.002889846 0.9207135 
11.74115 -0.4811502 -7.169749 -0.3901648 -0.002998996 0.9207401 
11.74115 -0.5530105 -7.170051 -0.2999832 0.003120448 0.9539394 
11.74115 -0.6248703 -7.170251 0.007376106 0.4924887 -0.8702877 
11.75365 -0.6901503 -7.239749 -0.1504489 0.2502698 -0.9564153 
11.74735 -0.7652602 -7.20535 0.05381718 -0.07083643 -0.9960352 
11.75365 -0.8337402 -7.240251 -0.2679695 0.02311541 0.9631501 
11.74735 -0.9089103 -7.20585 0.141743 -0.1881342 -0.9718613 
11.75355 -0.9773302 -7.24075 -0.03124833 0.04087695 -0.9986755 
11.75355 -1.04912 -7.240951 -0.03713799 0.4325511 -0.9008442 
11.76605 -1.11397 -7.310349 -0.06629337 0.4258374 -0.9023678 
11.76605 -1.1857 -7.31055 -0.127498 0.3166799 -0.9399245 
11.73475 -1.27513 -7.13775 -0.583879 0.1883583 0.7896875 
11.72845 -1.3506 -7.103349 -0.4861872 -0.3665696 0.7932521 
11.74105 -1.4153 -7.17295 -0.3323328 -0.6088635 0.7203057 
11.74725 -1.483521 -7.207849 0.0165543 0.338206 -0.9409266 
11.75345 -1.55168 -7.24265 0.01051036 0.2551311 -0.9668493 
11.75345 -1.62347 -7.24285 0.1741142 -0.2704694 -0.946853 
11.74725 -1.699 -7.20855 -0.4459016 0.5346376 0.717868 
11.73465 -1.778361 -7.139451 -0.5486725 0.2764478 0.789009 
11.73465 -1.85025 -7.139649 -0.5929635 0.0806544 0.8011799 
11.73465 -1.922141 -7.139949 -0.4476829 -0.3984355 0.8005181 
11.74715 -1.9863 -7.209451 -0.3541721 -0.3455904 0.8689818 
11.74715 -2.058121 -7.20975 0.1627443 -0.003215779 -0.9866631 
11.74715 -2.129951 -7.20995 0.0698446 -0.08572167 -0.993868 
11.74085 -2.20574 -7.17555 0.1443397 -0.1670845 -0.9753199 
11.74085 -2.2776 -7.175851 -0.2774709 0.08320719 0.9571241 
11.74085 -2.349451 -7.176049 0.2258329 -0.0007659774 -0.9741658 
11.74085 -2.42131 -7.176351 0.1115394 0.1712621 -0.9788914 
11.74085 -2.49317 -7.176551 0.0548365 -0.003928156 -0.9984877 
11.74075 -2.565031 -7.176751 0.143016 -0.09076381 -0.9855498 
11.74075 -2.63688 -7.177049 0.2154622 -0.0004145075 -0.9765121 
11.74075 -2.70874 -7.177249 0.1839166 0.0007222295 -0.9829416 
11.74075 -2.780601 -7.17755 -0.3210036 0.005915717 0.9470595 
11.74075 -2.85246 -7.177751 -0.3769079 0.08695858 0.9221598 
11.74075 -2.92432 -7.177949 -0.4449739 0.07896151 0.8920557 
11.74075 -2.99617 -7.17825 -0.3903143 -0.00321259 0.9206761 
11.74075 -3.06803 -7.178451 -0.26713 0.08293388 0.9600852 
11.74065 -3.13989 -7.17875 0.2024798 0.08308927 -0.9757552 
11.74065 -3.211751 -7.178948 0.1608035 0.2513337 -0.9544494 
11.74695 -3.27916 -7.213851 0.204807 -0.001229811 -0.9788016 
11.74065 -3.35546 -7.17945 -0.2583397 0.005624868 0.9660378 
11.74065 -3.42732 -7.17965 -0.4223851 -0.07306947 0.9034665 
11.74065 -3.499181 -7.17995 -0.5580093 -0.3182649 0.7663766 
11.75315 -3.5619 -7.24945 -0.3316815 0.07295204 0.9405665 
11.74065 -3.64289 -7.180451 -0.2660127 0.44286 0.8562198 
11.74055 -3.71475 -7.18065 -0.2276596 0.1790758 0.9571327 
11.74055 -3.786611 -7.18085 -0.3066427 -9.570831e-05 0.9518247 
11.74055 -3.85847 -7.181149 -0.2645959 -0.08358408 0.9607303 
11.74055 -3.930321 -7.18135 -0.2673772 0.001681441 0.9635905 
11.74055 -4.00218 -7.181649 -0.3354185 0.08110041 0.9385719 
11.74055 -4.07404 -7.181849 -0.306495 -2.59336e-05 0.9518722 
11.74055 -4.145901 -7.18205 -0.2644278 -0.08349498 0.9607843 
11.74045 -4.21776 -7.182351 0.1809182 0.08357048 -0.9799411 
11.74045 -4.28961 -7.182549 0.1210516 0.0003787577 -0.9926462 
11.74045 -4.361471 -7.182849 0.2281304 -0.0112027 -0.9735661 
11.74045 -4.433331 -7.183049 -0.4139953 0.08671271 0.9061396 
11.74045 -4.50519 -7.183351 -0.4277549 0.08016483 0.9003329 
11.74045 -4.577051 -7.183549 -0.3901949 -0.002892965 0.9207277 
11.74045 -4.648901 -7.183749 -0.247463 0.08488397 0.9651719 
11.74045 -4.72076 -7.184051 -0.2775531 0.0841986 0.9570135 
11.74035 -4.79262 -7.184251 0.1961819 -0.08324583 -0.9770276 
11.73415 -4.869631 -7.14985 0.2047828 -0.001938965 -0.9788056 
11.74035 -4.936331 -7.184751 0.1909545 0.08386934 -0.9780093 
11.74035 -5.00819 -7.184951 -0.2904052 0.008926464 0.9568622 
11.74035 -5.08005 -7.18525 -0.436744 0.166506 0.8840421 
11.73405 -5.15719 -7.150849 -0.4640761 0.1159068 0.8781793 
11.73405 -5.22908 -7.15105 -0.393467 -0.09263483 0.9146597 
11.73405 -5.30097 -7.15125 0.1921262 0.07927112 -0.9781634 
11.74025 -5.367451 -7.18625 -0.1543084 0.2535865 0.9549255 
11.72775 -5.45015 -7.117051 -0.1535173 0.4119036 0.8982026 
11.72145 -5.527551 -7.082551 0.08180336 -0.04098174 -0.9958056 
11.72145 -5.599451 -7.082849 0.1562946 -0.0920324 -0.9834135 
11.72145 -5.67145 -7.083049 0.1473431 0.1913297 -0.9704036 
-3.51205 4.67645 10.13345 -0.9759001 0.09759002 -0.19518 
-3.51205 4.67645 10.13345 -0.9759001 0.09759002 -0.19518 
-3.51205 4.67645 10.13345 -0.9759001 0.09759002 -0.19518 
-3.51205 4.67645 10.13345 -0.9759001 0.09759002 -0.19518 
-3.51205 4.67645 10.13345 -0.9759001 0.09759002 -0.19518 
-3.51205 4.67645 10.13345 -0.9759001 0.09759002 -0.19518 
11.20025 -6.65195 -4.201849 0.2742828 0.2094321 -0.9385666 
11.21375 -6.71415 -4.27685 0.498565 0.2983959 -0.8138752 
11.20705 -6.79495 -4.239749 -0.5042478 0.06656843 0.8609895 
11.20025 -6.875851 -4.202649 -0.3887651 0.1993681 0.8995077 
11.20025 -6.95055 -4.20285 0.007056348 -0.0988304 -0.9950793 
11.20025 -7.02515 -4.20315 -0.1674754 0.4524926 -0.875901 
11.22045 -7.08065 -4.315351 -0.2552562 0.6438559 -0.721314 
11.22045 -7.15515 -4.315649 -0.1449745 0.6413935 -0.7533902 
11.23385 -7.21675 -4.39035 -0.09115622 0.3426233 -0.9350401 
11.23385 -7.29125 -4.390551 -0.01852321 0.08250941 -0.9964182 
11.24055 -7.359251 -4.42805 0.009446247 0.02533077 -0.9996345 
11.23385 -7.44015 -4.391049 -0.07519985 -0.3151358 -0.9460626 
11.22715 -7.521151 -4.354151 0.0006883118 -0.3234557 -0.9462431 
11.22035 -7.602251 -4.317149 0.05166562 -0.0246677 -0.9983598 
11.22705 -7.670151 -4.35465 0.1973893 0.0977439 -0.9754403 
11.22705 -7.74465 -4.354849 0.1814952 0.2114665 -0.9603861 
11.29175 7.52641 -4.237249 0.3898658 0.002806248 -0.9208674 
11.29175 7.45189 -4.23745 0.3899885 0.002869929 -0.9208153 
11.29175 7.37736 -4.23775 0.3899288 0.002910434 -0.9208404 
11.29165 7.30283 -4.23795 -0.4647577 -0.1098754 0.8785942 
11.03235 7.23873 -2.79505 -0.3038894 0.02847559 -0.9522817 
11.03235 7.16286 -2.795349 -0.3485365 0.1987146 -0.9159884 
11.03925 7.08679 -2.834249 -0.3343285 0.2679493 -0.9035639 
11.06695 7.01028 -2.988649 -0.4065182 0.6982232 -0.58926 
11.06695 6.93459 -2.98895 -0.5595673 0.6940643 -0.452945 
-3.51205 4.67645 10.13345 -0.9759001 0.09759002 -0.19518 
-3.51205 4.67645 10.13345 -0.9759001 0.09759002 -0.19518 
-3.51205 4.67645 10.13345 -0.9759001 0.09759002 -0.19518 
-3.51205 4.67645 10.13345 -0.9759001 0.09759002 -0.19518 
-3.51205 4.67645 10.13345 -0.9759001 0.09759002 -0.19518 
11.50295 6.48546 -5.41705 -0.5766814 0.08584038 0.8124469 
11.50285 6.41202 -5.41725 -0.6174572 0.1544526 0.7712918 
11.49635 6.33845 -5.38125 -0.522292 0.2834605 0.8042769 
11.49635 6.26498 -5.381549 0.4148562 -0.3579904 -0.836503 
11.48985 6.1913 -5.345549 0.08051226 -0.4148527 -0.9063196 
11.48325 6.11755 -5.30945 0.20969 0.1990106 -0.9573008 
11.48985 6.04429 -5.34595 -0.2053691 -0.3308197 0.9210765 
11.49635 5.9711 -5.38255 -0.520449 -0.6588674 0.5431635 
11.51585 5.89866 -5.49135 -0.6944166 -0.5004756 0.5170201 
11.52875 5.82604 -5.56385 -0.5282449 -0.407854 0.7447231 
11.49625 5.75069 -5.38325 -0.5202956 0.1311325 0.8438583 
11.48325 5.676336 -5.310949 -0.4823439 0.1174347 0.8680746 
11.49625 5.603757 -5.383749 -0.1575522 -0.4618496 0.8728529 
11.50275 5.530799 -5.42025 0.0301693 0.2768492 -0.9604397 
11.50275 5.457363 -5.42045 0.03016928 0.2768492 -0.9604397 
-3.51205 4.67645 10.13345 -0.9759001 0.09759002 -0.19518 
-3.51205 4.67645 10.13345 -0.9759001 0.09759002 -0.19518 
-3.51205 4.67645 10.13345 -0.9759001 0.09759002 -0.19518 
-3.51205 4.67645 10.13345 -0.9759001 0.09759002 -0.19518 
11.76455 5.118862 -6.87935 -0.9255567 -0.2320825 0.2991367 
11.85805 5.057489 -7.39965 -0.2491174 0.6446602 -0.7227405 
11.86415 4.986629 -7.434251 -0.009545264 -0.9998142 0.01674956 
11.86415 4.915059 -7.434548 0.2271626 -0.6767641 -0.7002767 
11.83315 4.839459 -7.262349 -0.2899881 -0.3130363 0.9043867 
11.83315 4.767729 -7.262551 -0.2575792 -0.2213916 0.9405524 
11.84555 4.697742 -7.331849 -0.1798284 0.4889403 -0.8535802 
11.87645 4.630579 -7.504251 -0.1325432 0.1407708 -0.9811299 
11.87025 4.558143 -7.47005 -0.5620339 0.05076287 -0.8255551 
11.87645 4.487568 -7.504649 -0.2565786 -0.03689499 -0.965819 
11.87645 4.416062 -7.504951 -0.03399787 0.1023259 -0.9941698 
11.87025 4.34353 -7.470849 -0.4631197 -0.2177052 -0.8591418 
11.84545 4.26775 -7.33335 -0.6692584 -0.1869503 -0.7191265 
11.84545 4.196085 -7.33355 -0.6462389 0.1589381 -0.7464007 
11.86405 4.127794 -7.43715 -0.6198198 0.3768603 -0.6883312 
11.86405 4.056225 -7.437348 -0.7008227 0.08036339 -0.7087943 
11.87015 3.985842 -7.472049 -0.709406 0.0005652761 -0.7047999 
11.86395 3.913086 -7.43785 -0.654928 -0.04129228 -0.7545623 
11.87015 3.842767 -7.472451 -0.2478945 -0.2153848 -0.944541 
11.86395 3.769947 -7.43835 -0.225878 -0.1779361 -0.9577672 
11.85775 3.697062 -7.404151 -0.180111 -0.415107 -0.8917658 
11.85155 3.62411 -7.36995 -0.1903359 -0.6858235 -0.7024375 
11.82675 3.54694 -7.23215 -0.1744745 -0.780794 -0.5999328 
11.81425 3.47234 -7.16315 0.01310271 -0.2432574 -0.9698733 
11.81425 3.40052 -7.16335 -0.06091545 -0.674442 0.7358107 
11.83915 3.33462 -7.30195 0.03069783 -0.7943884 0.606634 
11.87005 3.27047 -7.47445 -0.1529809 0.5780749 -0.801515 
11.87625 3.20046 -7.509049 -0.2856894 -0.06797813 -0.9559082 
11.87005 3.12739 -7.47495 -0.2545214 -0.4703093 -0.8450019 
11.83905 3.04783 -7.302949 -0.3186859 0.4952468 0.8081893 
11.83285 2.97449 -7.268649 -0.3112864 0.1834715 0.9324372 
11.83285 2.90277 -7.268849 -0.4678029 0.007872611 0.8837978 
11.83285 2.83104 -7.26905 -0.4167156 -0.0003660009 0.9090368 
11.83285 2.75931 -7.269349 -0.238142 0.05047481 0.9699179 
11.83285 2.68758 -7.269549 -0.02640466 -0.1136531 -0.9931695 
11.83275 2.61585 -7.269851 -0.4984623 0.08086473 -0.8631318 
11.82655 2.54228 -7.23545 -0.1531549 -0.1063434 -0.9824636 
11.85755 2.47984 -7.40825 -0.01206346 0.2926777 -0.956135 
11.86375 2.41013 -7.44295 -0.1960317 0.2108072 -0.9576701 
11.86375 2.33856 -7.443151 -0.4064429 -0.0801022 -0.9101581 
11.85135 2.26308 -7.374551 -0.2427129 -0.5067503 -0.827221 
11.83895 2.18746 -7.30585 -0.08494567 -0.4027778 -0.9113475 
11.83895 2.11577 -7.30605 0.1076226 -0.5097625 -0.8535571 
11.83265 2.04201 -7.27175 0.2192728 -0.6050503 -0.7653977 
11.82645 1.96819 -7.237451 -0.4035319 0.4215998 0.8120441 
11.82025 1.89431 -7.20305 -0.4161681 0.1583892 0.8953865 
11.82025 1.82251 -7.203349 0.1793343 0.1766354 -0.9678013 
11.82015 1.75072 -7.203549 0.1410089 0.2732208 -0.9515603 
11.82645 1.68115 -7.238351 -0.03840372 0.1796326 -0.9829839 
11.83265 1.61164 -7.273149 -0.04355352 -0.001779345 -0.9990496 
11.82635 1.53762 -7.238851 0.2019739 -0.2454537 -0.9481345 
11.82635 1.46586 -7.23915 -0.3116947 0.3065318 0.8993801 
11.82015 1.39175 -7.204751 0.1375697 -0.3347872 -0.9321975 
11.82015 1.31996 -7.204949 -0.2988783 0.2350791 0.9248835 
11.81385 1.24575 -7.17065 -0.258505 0.001203824 0.9660092 
11.82005 1.17637 -7.205451 -0.2059373 -0.2533884 0.94519 
11.82005 1.10458 -7.20575 -0.2650748 -0.08520586 0.9604558 
11.82005 1.03278 -7.205949 -0.2721255 -0.1680259 0.9474783 
11.82625 0.9635298 -7.24075 -0.3946099 0.1904192 0.8989013 
11.81385 0.8866198 -7.171849 0.09806764 -0.1805131 -0.9786714 
11.82005 0.8173997 -7.206651 -0.0144509 0.1170101 -0.9930256 
11.82005 0.7456098 -7.20695 -0.3949209 0.2289056 -0.8897414 
11.81995 0.67382 -7.20715 -0.1479864 0.1427136 -0.9786384 
11.83245 0.6074195 -7.276551 -0.7076195 0.02982512 -0.7059639 
11.81995 0.5302296 -7.20765 -0.3683948 -0.04313929 -0.928668 
11.82615 0.4611998 -7.24245 -0.2939846 -0.3883595 -0.8733556 
11.81995 0.3866396 -7.20815 -0.3080336 0.1361115 0.9415885 
11.81995 0.3148494 -7.20835 -0.566462 0.05415335 0.8223067 
11.81365 0.24019 -7.173951 -0.553106 -0.165545 0.8164979 
11.81995 0.1712599 -7.20885 -0.2887454 -0.4559232 0.841879 
11.82615 0.1023898 -7.243649 -0.03225858 0.08610147 -0.995764 
11.82615 0.03062963 -7.243951 0.1196701 -0.5203537 -0.8455242 
11.81985 -0.04412031 -7.20955 -0.4823503 0.2597207 0.8365903 
11.81365 -0.1189404 -7.175149 -0.6243717 0.1937312 0.756722 
11.80735 -0.1938205 -7.14075 -0.6179321 0.268259 0.7390514 
11.80735 -0.2656803 -7.141049 -0.3903702 -0.003282822 0.9206522 
11.80735 -0.3375401 -7.14125 -0.3904047 -0.003107058 0.9206381 
11.80735 -0.4094005 -7.141549 -0.3063996 -0.001003757 0.9519025 
11.80735 -0.4812603 -7.141749 0.221583 0.1736378 -0.9595577 
11.80735 -0.5531106 -7.14195 0.1768531 0.1739505 -0.9687436 
11.81355 -0.6217203 -7.17685 -0.1532047 0.3469167 -0.9252984 
11.82595 -0.6869802 -7.24635 0.1204946 0.1694303 -0.9781485 
11.81975 -0.7620502 -7.211949 0.1802857 -0.1194189 -0.9763381 
11.81975 -0.8338504 -7.212251 0.1427365 -0.08575597 -0.9860387 
11.81975 -0.9056401 -7.212449 -0.3367279 -3.031595e-05 0.941602 
11.81965 -0.9774404 -7.21275 0.2343913 0.1056365 -0.9663859 
11.81965 -1.049231 -7.212951 -0.2875747 -0.4703378 0.834316 
11.83215 -1.11408 -7.28235 0.1715875 0.5492583 -0.8178467 
11.83205 -1.185811 -7.28255 -0.02835006 0.4451512 -0.8950065 
11.79475 -1.27879 -7.07495 -0.5062128 -0.457792 0.7308728 
11.79475 -1.35071 -7.07525 -0.3315333 -0.5577202 0.7609428 
11.81335 -1.4118 -7.179551 0.2246794 0.6149736 -0.7558616 
11.81965 -1.47999 -7.21445 -0.2567842 -0.5390581 0.8021709 
11.82585 -1.54812 -7.249249 0.2078997 0.3414806 -0.9166071 
11.82575 -1.61988 -7.24945 -0.2815577 0.2918084 0.9140969 
11.80715 -1.70284 -7.14585 -0.3277163 0.6156901 0.7166085 
11.80085 -1.778471 -7.111451 -0.3416281 0.3139043 0.8858636 
11.80085 -1.85036 -7.11165 -0.3191458 0.002851802 0.9477013 
11.80085 -1.92225 -7.11185 -0.3894966 -0.316485 0.8649449 
11.81325 -1.986411 -7.181451 -0.4887729 -0.3245414 0.8097987 
11.81325 -2.05823 -7.181748 -0.3546329 -0.2612174 0.8977757 
11.81945 -2.126131 -7.21655 -0.245487 -0.05875103 0.967618 
11.81325 -2.20188 -7.182151 0.03240939 -0.1611969 -0.98639 
11.81325 -2.273711 -7.18245 0.07223223 -0.1654068 -0.9835767 
11.80695 -2.34956 -7.148049 0.1180915 -0.008971676 -0.9929622 
11.81325 -2.417361 -7.18295 0.0223656 0.2523058 -0.967389 
11.81945 -2.4851 -7.21775 0.04665764 -0.09153552 -0.9947081 
11.81315 -2.561011 -7.18345 -0.1743628 0.2599347 0.9497534 
11.81315 -2.632841 -7.18365 -0.2478949 0.004644612 0.9687758 
11.81315 -2.70466 -7.18385 0.1772266 0.1717412 -0.9690695 
11.81315 -2.776491 -7.18415 0.06506515 -0.005370925 -0.9978666 
11.80695 -2.852561 -7.149751 0.06791846 -0.206207 -0.9761484 
11.80685 -2.92442 -7.149949 -0.2789109 0.178913 0.9435035 
11.80685 -2.996281 -7.150149 -0.3901671 -0.003001028 0.9207392 
11.80685 -3.068141 -7.150451 -0.3903688 -0.003121802 0.9206533 
11.80685 -3.14 -7.150651 0.2709925 0.1682315 -0.9477665 
11.81305 -3.20744 -7.18555 0.2844442 0.2491861 -0.9257417 
11.81305 -3.27927 -7.185849 0.2258987 -0.001260337 -0.97415 
11.81305 -3.35109 -7.186051 0.1855263 -0.0848624 -0.978968 
11.81305 -3.42292 -7.18625 -0.2461229 0.1638881 0.9552823 
11.80675 -3.499281 -7.151849 -0.5177959 -0.1625877 0.8399123 
11.81925 -3.562 -7.221351 -0.5394711 -0.1258703 0.8325428 
11.81925 -3.633801 -7.22165 -0.3218137 0.3019944 0.8973491 
11.80675 -3.714861 -7.15265 -0.2070297 0.1792936 0.9617653 
11.80675 -3.78672 -7.15285 0.1495382 0.06345367 -0.9867178 
11.80675 -3.85857 -7.15305 0.2019706 0.08407776 -0.975776 
11.81295 -3.9257 -7.187951 0.1436003 -0.0920423 -0.9853462 
11.80665 -4.002291 -7.15355 -0.2376173 0.08688048 0.9674656 
11.80665 -4.07415 -7.15385 0.2228618 0.0836558 -0.971254 
11.80665 -4.146001 -7.15405 0.191265 0.08412277 -0.9779269 
11.81285 -4.213 -7.188951 0.1228438 0.1689865 -0.977933 
11.81285 -4.28483 -7.189149 0.05293189 0.08320732 -0.9951255 
11.81285 -4.35665 -7.18945 -0.1354037 0.2530731 0.9579247 
11.80665 -4.43344 -7.155049 -0.2403109 0.187491 0.9524169 
11.80665 -4.50529 -7.15525 -0.3066694 -4.689395e-05 0.9518162 
11.80655 -4.57715 -7.155549 -0.2644091 -0.08311447 0.9608225 
11.80655 -4.649011 -7.155749 -0.2672707 0.002120389 0.9636192 
11.80655 -4.72087 -7.15595 -0.3081127 0.1741526 0.9352741 
11.80655 -4.792721 -7.156251 -0.3300139 0.09178241 0.9395035 
11.80655 -4.86458 -7.156449 -0.3290772 -0.07987408 0.9409189 
11.80655 -4.93644 -7.156749 0.2642606 0.08327174 -0.9608497 
11.80655 -5.008301 -7.156951 -0.3179606 0.08683655 0.9441189 
11.80025 -5.08541 -7.12255 -0.3778702 0.3107016 0.8721689 
11.80025 -5.157301 -7.12275 -0.5415382 0.1476331 0.8276116 
11.80025 -5.22919 -7.122949 -0.5668721 -0.085092 0.8193994 
11.80025 -5.301081 -7.12325 -0.7782329 -0.04825661 0.626119 
11.80645 -5.367551 -7.158151 -0.4173769 0.1825274 0.8902135 
11.79395 -5.450251 -7.089051 -0.4209218 0.4337533 0.79667 
11.78765 -5.527651 -7.054551 -0.3117504 0.1060303 0.9442295 
-3.51205 4.67645 10.13345 -0.9759001 0.09759002 -0.19518 
-3.51205 4.67645 10.13345 -0.9759001 0.09759002 -0.19518 
-3.51205 4.67645 10.13345 -0.9759001 0.09759002 -0.19518 
-3.51205 4.67645 10.13345 -0.9759001 0.09759002 -0.19518 
-3.51205 4.67645 10.13345 -0.9759001 0.09759002 -0.19518 
-3.51205 4.67645 10.13345 -0.9759001 0.09759002 -0.19518 
-3.51205 4.67645 10.13345 -0.9759001 0.09759002 -0.19518 
-3.51205 4.67645 10.13345 -0.9759001 0.09759002 -0.19518 
-3.51205 4.67645 10.13345 -0.9759001 0.09759002 -0.19518 
11.27575 -6.720551 -4.21035 0.2410319 0.1339368 -0.9612308 
11.27575 -6.795151 -4.210649 0.004593797 -0.3040458 -0.9526464 
11.27565 -6.86965 -4.210849 -0.2950625 -0.07549697 -0.9524906 
11.26895 -6.950651 -4.17375 -0.2919176 0.1761649 -0.9400798 
11.28905 -7.00615 -4.286051 -0.2487326 0.6541436 -0.7143027 
11.29575 -7.07435 -4.32355 -0.1196976 0.4587711 -0.8804553 
11.30245 -7.14245 -4.361051 -0.07394597 0.4231611 -0.9030319 
11.30915 -7.210451 -4.39845 0.04068475 0.2711754 -0.9616697 
11.30915 -7.28495 -4.39875 0.2253224 0.1307535 -0.9654706 
11.30915 -7.35935 -4.398951 0.1762374 -0.004769478 -0.9843362 
11.30905 -7.43375 -4.399249 0.231411 -0.2527377 -0.9394534 
11.30235 -7.51475 -4.362249 0.06730583 -0.3639588 -0.9289801 
11.29565 -7.595751 -4.325251 0.07569922 -0.08252717 -0.9937097 
11.29565 -7.670251 -4.325549 0.1273329 0.02438194 -0.9915604 
11.36035 7.37725 -4.208651 0.389929 0.002910429 -0.9208403 
11.13675 7.31291 -2.95815 -0.5879046 -0.1727244 -0.790275 
11.10225 7.23862 -2.76545 -0.283253 0.2874276 -0.9149607 
11.10915 7.16251 -2.80435 -0.283253 0.2874275 -0.9149607 
11.12295 7.08627 -2.881849 -0.4700282 0.6527455 -0.5941355 
11.15045 7.00983 -3.036051 -0.2617092 0.6595546 -0.7046248 
11.21195 6.933 -3.380651 -0.471861 0.8140146 -0.3387143 
11.22555 6.85751 -3.45695 0.2873469 -0.9325668 0.2185202 
-3.51205 4.67645 10.13345 -0.9759001 0.09759002 -0.19518 
-3.51205 4.67645 10.13345 -0.9759001 0.09759002 -0.19518 
-3.51205 4.67645 10.13345 -0.9759001 0.09759002 -0.19518 
11.51205 6.55842 -5.060649 -0.1065112 -0.9001691 0.4223163 
11.55755 6.4852 -5.315849 -0.7563428 0.06637431 0.6507995 
11.56405 6.41181 -5.35235 -0.8007385 0.05994501 0.5960073 
11.55755 6.3382 -5.31635 -0.7302586 -0.03828798 0.682097 
11.55755 6.26469 -5.316549 -0.4304836 -0.09763059 0.8973027 
11.55755 6.19119 -5.316851 0.1405937 -0.185027 -0.9726245 
11.55095 6.11745 -5.280749 -0.02456568 0.002806258 -0.9996943 
11.55745 6.04419 -5.317349 0.1678799 0.3422425 -0.9244926 
11.56395 5.97099 -5.353849 -0.4312951 -0.302471 0.8499976 
11.57685 5.89821 -5.42655 -0.7438882 -0.3894309 0.543115 
11.56395 5.82406 -5.35435 -0.567991 0.3634962 0.7384151 
11.55095 5.74976 -5.28195 0.2634993 -0.1786991 -0.9479635 
11.55095 5.676228 -5.282249 -0.2853028 -0.2235281 0.9320073 
11.56385 5.603648 -5.355049 -0.2682178 -0.5644788 0.7806554 
11.57035 5.53069 -5.39155 -0.3532072 -0.2470734 0.90233 
11.57035 5.457255 -5.39185 -0.3622138 -0.2048431 0.9093077 
11.52485 5.379759 -5.13765 -0.1471211 -0.5435132 -0.8264073 
-3.51205 4.67645 10.13345 -0.9759001 0.09759002 -0.19518 
-3.51205 4.67645 10.13345 -0.9759001 0.09759002 -0.19518 
-3.51205 4.67645 10.13345 -0.9759001 0.09759002 -0.19518 
-3.51205 4.67645 10.13345 -0.9759001 0.09759002 -0.19518 
-3.51205 4.67645 10.13345 -0.9759001 0.09759002 -0.19518 
11.93005 4.986523 -7.40635 -0.8128173 -0.5805303 -0.04809071 
11.89925 4.911082 -7.234149 0.01372222 -0.2917223 -0.9564046 
11.89925 4.839353 -7.234349 -0.2317669 -0.1955238 0.9529189 
11.91155 4.769302 -7.303651 -0.2317669 -0.1955238 0.952919 
11.94235 4.701979 -7.47605 -0.2211878 0.5728604 -0.7892446 
11.94845 4.631372 -7.51065 0.08169805 0.06893481 -0.9942703 
11.94235 4.558968 -7.47655 -0.1153079 0.05345936 -0.9918903 
11.94225 4.487462 -7.47675 -0.04002651 -0.084995 -0.9955771 
11.94225 4.415957 -7.47705 0.1506868 -0.1476221 -0.9774975 
11.94225 4.344451 -7.47725 -0.3302262 -0.1308352 0.9347903 
11.94835 4.274002 -7.511849 -0.2091718 -0.02361014 0.9775938 
11.93605 4.200349 -7.443351 -0.5094125 -0.04034674 -0.8595761 
11.94225 4.129934 -7.47795 -0.4086228 0.155394 -0.8993776 
11.95445 4.060732 -7.546849 -0.3421381 0.1881789 -0.9206141 
11.95445 3.98929 -7.547151 -0.3450838 -0.1013978 -0.9330786 
11.94215 3.915416 -7.478749 -0.1689446 -0.5259598 -0.8335611 
11.93605 3.842661 -7.444551 0.1523635 -0.3883752 -0.9088179 
11.93605 3.771124 -7.44485 0.2009743 -0.2457018 -0.9482826 
11.92985 3.698272 -7.410649 -0.05726319 -0.2698251 -0.9612052 
11.92365 3.62535 -7.376451 -0.2483428 -0.6195245 -0.7446579 
11.90515 3.54961 -7.27325 -0.2031887 -0.797347 -0.5682888 
11.88665 3.47366 -7.169749 -0.1933402 -0.4952488 -0.8469641 
11.88655 3.40186 -7.16995 -0.01797591 0.6590474 -0.7518866 
11.90515 3.33452 -7.27395 -0.00321081 -0.8152342 0.5791226 
11.94205 3.27186 -7.480851 -0.1469199 -0.5819749 0.7998248 
11.94825 3.20189 -7.51545 0.007416483 0.3567634 -0.9341654 
11.94815 3.13042 -7.515649 -0.1813836 -0.2392912 -0.9538552 
11.91125 3.04933 -7.309449 -0.05625239 -0.6817073 -0.7294593 
11.89885 2.97439 -7.240649 -0.4759556 0.2954265 0.8283654 
11.89885 2.90266 -7.240849 -0.565859 -0.1096945 0.8171724 
11.89885 2.83093 -7.241151 -0.2939905 -0.5359088 0.7914363 
11.90505 2.76094 -7.275949 -0.09677248 0.410353 -0.9067776 
11.89885 2.68747 -7.241549 -0.3476203 0.1437865 -0.926545 
11.90505 2.61754 -7.276351 -0.5703272 0.2290867 -0.7888259 
11.92345 2.55133 -7.38005 -0.5235156 0.3388065 -0.7817554 
11.92345 2.47973 -7.380349 -0.023159 0.3103693 -0.9503339 
11.92965 2.41002 -7.414948 -0.08279362 0.4599453 -0.8840789 
11.93575 2.34037 -7.449649 -0.4658099 0.2419724 -0.8511584 
11.93575 2.26883 -7.449849 -0.4960041 -0.247883 -0.8321863 
11.92345 2.19333 -7.381249 -0.2972575 -0.5428485 -0.7854639 
11.91725 2.11971 -7.347049 -0.2251381 -0.6113096 -0.7586919 
11.89875 2.04191 -7.243751 0.1218545 -0.6716793 -0.730752 
11.88635 1.96599 -7.17485 -0.2992754 0.4138393 0.8597507 
11.88635 1.8942 -7.17505 0.1961726 0.09313356 -0.9761366 
11.88635 1.82241 -7.17525 0.01229577 0.3278701 -0.9446428 
11.89865 1.75499 -7.24475 -0.279163 0.3141996 -0.9073845 
11.89865 1.68326 -7.24495 -0.2063519 0.2430521 -0.9478104 
11.90485 1.61378 -7.27975 -0.1025424 -0.0862517 -0.9909822 
11.89865 1.5398 -7.24545 0.0970522 -0.4418766 -0.8918105 
11.89245 1.46576 -7.21115 -0.3128527 0.5036125 0.8052935 
11.88625 1.39165 -7.176751 -0.414167 0.2446506 0.8767051 
11.88625 1.319849 -7.17695 -0.3933022 0.1674304 0.9040357 
11.88005 1.24564 -7.142549 -0.2827296 -0.08666538 0.9552765 
11.88615 1.17626 -7.177449 -0.2690916 -0.2574865 0.9280574 
11.88615 1.10447 -7.177751 0.225838 0.0008737257 -0.9741645 
11.88615 1.03268 -7.177949 -0.2860745 -0.2465769 0.9259381 
11.89235 0.9634297 -7.21275 0.2068853 -0.09516073 -0.9737263 
11.88615 0.8890898 -7.178451 0.09295359 0.001758956 -0.9956689 
11.89235 0.8198998 -7.21325 -0.3890236 0.4361416 -0.8114439 
11.91085 0.7560396 -7.317149 -0.7112769 0.3563314 -0.6058986 
11.92315 0.6896996 -7.38635 -0.7475793 0.1865003 -0.6374503 
11.92315 0.6180897 -7.38655 -0.8033475 0.02544805 -0.5949667 
11.91075 0.5410495 -7.317849 -0.6689668 -0.3362952 -0.6628641 
11.91075 0.4693794 -7.318151 -0.528776 -0.4982865 -0.6871001 
11.88605 0.3865395 -7.18015 0.05815984 -0.3652347 -0.9290969 
11.87985 0.3119097 -7.145751 -0.5449002 0.006839954 0.8384731 
11.87365 0.2372198 -7.111251 -0.3512624 -0.3691882 0.8604156 
11.89215 0.1740499 -7.215449 -0.21636 -0.7249926 0.6538915 
11.91075 0.1110497 -7.31935 0.1843392 0.0870114 -0.9790037 
11.89215 0.0305295 -7.215951 -0.2802477 0.5550961 0.7831536 
11.87975 -0.04722023 -7.146951 -0.2423901 0.3872688 0.8895336 
11.87975 -0.11904 -7.147149 -0.3077641 0.32752 0.8933152 
11.87355 -0.1939301 -7.11275 -0.2856937 0.314412 0.9052758 
11.87355 -0.2657905 -7.11295 -0.3065234 -0.00106046 0.9518625 
11.87355 -0.3376503 -7.11325 -0.2650239 -0.084859 0.9605005 
11.87355 -0.4095006 -7.11345 0.2350885 0.07480349 -0.9690913 
11.87355 -0.48136 -7.11375 -0.04519266 0.2813797 -0.9585317 
11.88585 -0.5467801 -7.183251 -0.1216976 0.4130548 -0.9025383 
11.92295 -0.5991302 -7.390649 -0.4948772 0.6460686 -0.5811127 
11.92295 -0.6707306 -7.39095 -0.6664817 0.08400195 -0.7407738 
11.89205 -0.7588506 -7.218551 0.08835296 -0.2207932 -0.9713106 
11.88585 -0.8339505 -7.184251 -0.2350116 0.1613401 0.9585087 
11.88585 -0.9057503 -7.184449 -0.2669964 0.08249219 0.9601604 
11.88585 -0.9775405 -7.184649 -0.2714919 -0.168188 0.9476313 
11.89195 -1.04589 -7.21955 0.2305089 0.4680726 -0.8530965 
11.89815 -1.11419 -7.25435 0.1904352 0.5994983 -0.7773907 
11.91045 -1.17892 -7.323649 -0.2531852 -0.3908043 0.8849685 
11.91045 -1.25059 -7.323951 0.1516191 -0.2504721 -0.9561775 
11.87335 -1.34366 -7.116651 -0.2160539 0.09461157 -0.9717867 
11.87335 -1.415511 -7.116851 0.07883292 0.3593718 -0.9298587 
11.87955 -1.48373 -7.15175 -0.4302922 -0.5152368 0.7412015 
11.89185 -1.54822 -7.22125 -0.4477175 -0.3325543 0.8300341 
11.89185 -1.61999 -7.22145 -0.469234 0.3941185 0.7902469 
11.87325 -1.70294 -7.11785 -0.3704714 0.4818586 0.7940802 
11.87325 -1.7748 -7.118051 -0.2903003 0.2344241 0.9277775 
11.86705 -1.85046 -7.08355 -0.306441 -0.07944334 0.9485688 
11.87325 -1.91852 -7.11855 0.2605675 0.3463157 -0.9012048 
11.87325 -1.99038 -7.118751 -0.3379287 -0.07962584 0.9377974 
11.87325 -2.062231 -7.11905 -0.5444894 -0.2416742 0.8031967 
11.88555 -2.12624 -7.18855 -0.5297756 -0.2444111 0.8121583 
11.88555 -2.19803 -7.18875 -0.4008298 0.02683725 0.9157593 
11.88555 -2.26982 -7.18905 -0.3218025 0.1854004 0.9284772 
11.87935 -2.345641 -7.154649 0.1816249 0.08188934 -0.9799523 
11.88555 -2.41341 -7.189549 0.2364702 0.1601441 -0.9583506 
11.88555 -2.48521 -7.18975 -0.2393316 -0.008589256 0.9708999 
11.87935 -2.561121 -7.155351 -0.221006 0.318768 0.9217069 
11.87315 -2.6371 -7.12095 0.1243987 0.07921515 -0.9890652 
11.87925 -2.704771 -7.15585 -0.03876115 0.4293795 -0.9022921 
11.88545 -2.77238 -7.190751 -0.2569266 0.07565615 -0.9634651 
11.88545 -2.84417 -7.190949 -0.3516338 -0.1817583 -0.9183233 
11.87305 -2.924531 -7.121949 0.1367796 -0.2656017 -0.9543307 
11.87305 -2.99639 -7.122149 -0.278961 0.1788732 0.9434962 
11.87305 -3.06824 -7.12235 -0.2644234 -0.0838288 0.9607564 
11.87305 -3.1401 -7.122651 0.2844814 0.2493385 -0.9256892 
11.87925 -3.20755 -7.15755 0.2708407 0.1683057 -0.9477968 
11.87915 -3.27937 -7.15775 -0.3345399 -0.08308988 0.9387115 
11.87915 -3.3512 -7.15805 -0.2470015 0.002456767 0.969012 
11.87915 -3.42303 -7.15825 -0.2677413 0.305345 0.9138266 
11.87295 -3.499391 -7.123849 -0.5675981 0.01828468 0.8231027 
11.87295 -3.57125 -7.124049 -0.6022329 -0.2161658 0.7684972 
11.87915 -3.6385 -7.15895 -0.441242 0.03054266 0.8968683 
11.87915 -3.71033 -7.159249 -0.2084809 0.1066445 0.9721948 
11.87905 -3.78215 -7.15945 0.03239182 0.08328113 -0.9959995 
11.87905 -3.85398 -7.159751 0.05272093 0.0834508 -0.9951164 
11.87905 -3.9258 -7.159951 0.09301013 -0.1710479 -0.9808627 
11.87285 -4.00239 -7.12555 0.1532274 -0.08677751 -0.9843735 
11.87905 -4.06946 -7.160449 0.1913198 0.08418126 -0.9779112 
11.87905 -4.14128 -7.160649 0.08300859 0.2570579 -0.9628245 
11.87905 -4.21311 -7.160951 -0.08351592 0.4076917 -0.9092924 
11.88525 -4.280041 -7.19575 -0.2702407 0.1914508 -0.9435659 
11.88515 -4.35184 -7.19605 -0.3620568 -0.1205484 -0.9243284 
11.87275 -4.43354 -7.12695 0.003855007 -0.335516 -0.9420266 
11.87275 -4.5054 -7.12725 -0.04153079 -0.07512859 -0.9963087 
11.87275 -4.577261 -7.12745 0.2018004 0.08374557 -0.9758399 
11.87895 -4.64406 -7.162349 -0.2682124 0.08793335 0.9593382 
11.87275 -4.72097 -7.12795 -0.3766263 0.3046391 0.8748415 
11.86655 -4.797951 -7.09345 -0.4260241 0.006120408 0.9046911 
11.87275 -4.864691 -7.128449 -0.3733411 -0.1657147 0.9127733 
11.87265 -4.93655 -7.12865 -0.3935095 -0.0927911 0.9146256 
11.87265 -5.008401 -7.128949 -0.24745 0.08503018 0.9651624 
11.87265 -5.08026 -7.129151 -0.3503659 0.3273297 0.8775529 
11.86025 -5.162691 -7.059951 -0.5685195 0.2352058 0.7883298 
11.86025 -5.234611 -7.06025 -0.7086014 0.100221 0.6984553 
11.84775 -5.317261 -6.990951 -0.7871313 0.08844545 0.6104111 
11.86015 -5.37845 -7.06075 -0.7717463 0.1717531 0.6122977 
11.77265 -5.526751 -6.571549 -0.7780511 0.5029086 0.3764566 
-3.51205 4.67645 10.13345 -0.9759001 0.09759002 -0.19518 
-3.51205 4.67645 10.13345 -0.9759001 0.09759002 -0.19518 
-3.51205 4.67645 10.13345 -0.9759001 0.09759002 -0.19518 
-3.51205 4.67645 10.13345 -0.9759001 0.09759002 -0.19518 
-3.51205 4.67645 10.13345 -0.9759001 0.09759002 -0.19518 
-3.51205 4.67645 10.13345 -0.9759001 0.09759002 -0.19518 
-3.51205 4.67645 10.13345 -0.9759001 0.09759002 -0.19518 
-3.51205 4.67645 10.13345 -0.9759001 0.09759002 -0.19518 
-3.51205 4.67645 10.13345 -0.9759001 0.09759002 -0.19518 
-3.51205 4.67645 10.13345 -0.9759001 0.09759002 -0.19518 
-3.51205 4.67645 10.13345 -0.9759001 0.09759002 -0.19518 
11.35775 -6.782751 -4.256149 -0.01295016 -0.04043013 -0.9990984 
11.35775 -6.85725 -4.25645 -0.3372185 0.03133987 -0.9409047 
