ply
format ascii 1.0
element vertex 842
property float x
property float y
property float z
property float nx
property float ny
property float nz
end_header
-7.31165 -6.28891 -8.50209 0.0708163 -0.0189569 -0.997309
-7.11956 -6.58267 -8.48286 0.0708163 -0.0189569 -0.997309
-6.34085 -6.49057 -8.42932 0.0708163 -0.0189569 -0.997309
-5.27917 -7.47266 -8.33527 0.0708163 -0.0189569 -0.997309
-5.66335 -6.88515 -8.37371 0.0708163 -0.0189569 -0.997309
11.3184 0.503522 -7.30833 0.0708163 -0.0189569 -0.997309
11.8039 0.4027 -7.27194 0.0708163 -0.0189569 -0.997309
11.7026 -0.0839867 -7.26988 0.0708163 -0.0189569 -0.997309
11.2276 1.28396 -7.32961 0.0708163 -0.0189569 -0.997309
11.4197 0.99021 -7.31039 0.0708163 -0.0189569 -0.997309
11.5209 1.47688 -7.31245 0.0708163 -0.0189569 -0.997309
11.713 1.18314 -7.29323 0.0708163 -0.0189569 -0.997309
11.8142 1.66982 -7.29529 0.0708163 -0.0189569 -0.997309
12.1024 1.22919 -7.26645 0.0708163 -0.0189569 -0.997309
12.0063 1.37607 -7.27607 0.0708163 -0.0189569 -0.997309
11.9959 0.108946 -7.25272 0.0708163 -0.0189569 -0.997309
11.6118 0.696455 -7.29116 0.0708163 -0.0189569 -0.997309
11.9051 0.889382 -7.274 0.0708163 -0.0189569 -0.997309
12.1932 0.448755 -7.24517 0.0708163 -0.0189569 -0.997309
12.0972 0.595628 -7.25478 0.0708163 -0.0189569 -0.997309
12.2438 0.692097 -7.2462 0.0708163 -0.0189569 -0.997309
11.0355 1.57771 -7.34883 0.0708163 -0.0189569 -0.997309
10.9343 1.09102 -7.34677 0.0708163 -0.0189569 -0.997309
11.6222 1.96357 -7.31451 0.0708163 -0.0189569 -0.997309
12.1582 2.10611 -7.27916 0.0708163 -0.0189569 -0.997309
12.2542 1.95922 -7.26955 0.0708163 -0.0189569 -0.997309
11.9155 2.15649 -7.29735 0.0708163 -0.0189569 -0.997309
12.0115 2.00961 -7.28774 0.0708163 -0.0189569 -0.997309
11.4301 2.25733 -7.33374 0.0708163 -0.0189569 -0.997309
11.238 2.55108 -7.35296 0.0708163 -0.0189569 -0.997309
11.7286 3.0838 -7.32825 0.0708163 -0.0189569 -0.997309
12.0167 2.64317 -7.29942 0.0708163 -0.0189569 -0.997309
11.7234 2.45024 -7.31658 0.0708163 -0.0189569 -0.997309
11.5313 2.744 -7.3358 0.0708163 -0.0189569 -0.997309
11.8246 2.93692 -7.31864 0.0708163 -0.0189569 -0.997309
11.9206 2.79004 -7.30903 0.0708163 -0.0189569 -0.997309
11.8753 3.18029 -7.31967 0.0708163 -0.0189569 -0.997309
11.9713 3.03342 -7.31006 0.0708163 -0.0189569 -0.997309
11.6325 3.23068 -7.33786 0.0708163 -0.0189569 -0.997309
11.7792 3.32717 -7.32928 0.0708163 -0.0189569 -0.997309
12.1984 1.08232 -7.25684 0.0708163 -0.0189569 -0.997309
12.3451 1.1788 -7.24826 0.0708163 -0.0189569 -0.997309
12.2036 1.71586 -7.26852 0.0708163 -0.0189569 -0.997309
12.1075 1.86273 -7.27813 0.0708163 -0.0189569 -0.997309
11.2172 0.0168352 -7.30626 0.0708163 -0.0189569 -0.997309
-2.56917 -9.05095 -8.11284 0.0708163 -0.0189569 -0.997309
-4.56666 -9.52458 -8.24567 0.0708163 -0.0189569 -0.997309
-4.41998 -9.4281 -8.23709 0.0708163 -0.0189569 -0.997309
-4.32393 -9.57498 -8.22748 0.0708163 -0.0189569 -0.997309
-5.96704 -8.34518 -8.36753 0.0708163 -0.0189569 -0.997309
-6.01769 -8.58855 -8.3665 0.0708163 -0.0189569 -0.997309
-5.77495 -8.63894 -8.3483 0.0708163 -0.0189569 -0.997309
-5.28954 -8.73976 -8.31192 0.0708163 -0.0189569 -0.997309
-5.48163 -8.44601 -8.33114 0.0708163 -0.0189569 -0.997309
-5.87099 -8.49206 -8.35791 0.0708163 -0.0189569 -0.997309
-5.38042 -7.95934 -8.3332 0.0708163 -0.0189569 -0.997309
-5.09745 -9.03352 -8.29269 0.0708163 -0.0189569 -0.997309
-4.99624 -8.54685 -8.29476 0.0708163 -0.0189569 -0.997309
-4.80415 -8.8406 -8.27553 0.0708163 -0.0189569 -0.997309
-5.00141 -9.18039 -8.28308 0.0708163 -0.0189569 -0.997309
-4.61206 -9.13436 -8.25631 0.0708163 -0.0189569 -0.997309
-4.31873 -8.94142 -8.23915 0.0708163 -0.0189569 -0.997309
-4.02541 -8.7485 -8.22199 0.0708163 -0.0189569 -0.997309
-3.74247 -9.82268 -8.18148 0.0708163 -0.0189569 -0.997309
-3.69705 -10.2129 -8.17084 0.0708163 -0.0189569 -0.997309
-3.93456 -9.52892 -8.2007 0.0708163 -0.0189569 -0.997309
-3.44915 -9.62975 -8.16432 0.0708163 -0.0189569 -0.997309
-3.64643 -9.96955 -8.17187 0.0708163 -0.0189569 -0.997309
-4.12665 -9.23517 -8.21993 0.0708163 -0.0189569 -0.997309
-3.83333 -9.04224 -8.20277 0.0708163 -0.0189569 -0.997309
-3.54 -8.84931 -8.18561 0.0708163 -0.0189569 -0.997309
-2.96374 -9.73057 -8.12794 0.0708163 -0.0189569 -0.997309
-3.25707 -9.92351 -8.1451 0.0708163 -0.0189569 -0.997309
-3.64124 -9.336 -8.18354 0.0708163 -0.0189569 -0.997309
-3.34791 -9.14306 -8.16638 0.0708163 -0.0189569 -0.997309
-2.8625 -9.24389 -8.13 0.0708163 -0.0189569 -0.997309
12.0816 -1.30505 -7.21976 0.0708163 -0.0189569 -0.997309
12.1322 -1.06171 -7.22079 0.0708163 -0.0189569 -0.997309
11.9855 -1.15817 -7.22937 0.0708163 -0.0189569 -0.997309
11.7935 -0.86442 -7.24859 0.0708163 -0.0189569 -0.997309
12.1828 -0.81837 -7.22182 0.0708163 -0.0189569 -0.997309
12.3295 -0.721905 -7.21324 0.0708163 -0.0189569 -0.997309
11.8947 -0.377733 -7.25066 0.0708163 -0.0189569 -0.997309
12.0868 -0.671488 -7.23143 0.0708163 -0.0189569 -0.997309
11.4093 -0.276919 -7.28704 0.0708163 -0.0189569 -0.997309
11.6014 -0.570665 -7.26782 0.0708163 -0.0189569 -0.997309
12.3801 -0.478555 -7.21427 0.0708163 -0.0189569 -0.997309
12.2334 -0.575024 -7.22285 0.0708163 -0.0189569 -0.997309
12.188 -0.1848 -7.2335 0.0708163 -0.0189569 -0.997309
12.2841 -0.331682 -7.22388 0.0708163 -0.0189569 -0.997309
10.6098 -2.90328 -7.29389 0.0708163 -0.0189569 -0.997309
10.9031 -2.71034 -7.27673 0.0708163 -0.0189569 -0.997309
11.0043 -2.22366 -7.27879 0.0708163 -0.0189569 -0.997309
11.1964 -2.51741 -7.25957 0.0708163 -0.0189569 -0.997309
11.0952 -3.00409 -7.25751 0.0708163 -0.0189569 -0.997309
10.9939 -3.49078 -7.25544 0.0708163 -0.0189569 -0.997309
11.2873 -3.29784 -7.23828 0.0708163 -0.0189569 -0.997309
11.1056 -1.73697 -7.28085 0.0708163 -0.0189569 -0.997309
11.3989 -1.54404 -7.26369 0.0708163 -0.0189569 -0.997309
11.5001 -1.05735 -7.26576 0.0708163 -0.0189569 -0.997309
12.1776 -1.45193 -7.21015 0.0708163 -0.0189569 -0.997309
11.8843 -1.64486 -7.22731 0.0708163 -0.0189569 -0.997309
11.6922 -1.35111 -7.24653 0.0708163 -0.0189569 -0.997309
11.7727 -3.39867 -7.2019 0.0708163 -0.0189569 -0.997309
11.5806 -3.10491 -7.22112 0.0708163 -0.0189569 -0.997309
11.9751 -2.4253 -7.20602 0.0708163 -0.0189569 -0.997309
12.0712 -2.57218 -7.19641 0.0708163 -0.0189569 -0.997309
11.8739 -2.91198 -7.20396 0.0708163 -0.0189569 -0.997309
11.2977 -2.03072 -7.26163 0.0708163 -0.0189569 -0.997309
11.6818 -2.61822 -7.22318 0.0708163 -0.0189569 -0.997309
11.3885 -2.81116 -7.24035 0.0708163 -0.0189569 -0.997309
11.591 -1.8378 -7.24447 0.0708163 -0.0189569 -0.997309
11.7831 -2.13155 -7.22525 0.0708163 -0.0189569 -0.997309
12.0764 -1.93862 -7.20809 0.0708163 -0.0189569 -0.997309
12.1724 -2.08549 -7.19847 0.0708163 -0.0189569 -0.997309
12.2231 -1.84215 -7.1995 0.0708163 -0.0189569 -0.997309
12.1218 -2.32883 -7.19744 0.0708163 -0.0189569 -0.997309
10.4073 -3.87664 -7.28977 0.0708163 -0.0189569 -0.997309
-0.981853 -11.1576 -7.96008 0.0708163 -0.0189569 -0.997309
-0.931232 -10.9143 -7.96111 0.0708163 -0.0189569 -0.997309
-1.41664 -10.8135 -7.9975 0.0708163 -0.0189569 -0.997309
-1.56331 -10.9099 -8.00608 0.0708163 -0.0189569 -0.997309
-1.22456 -11.1072 -7.97827 0.0708163 -0.0189569 -0.997309
-1.12331 -10.6205 -7.98033 0.0708163 -0.0189569 -0.997309
-1.0779 -11.0108 -7.96969 0.0708163 -0.0189569 -0.997309
-1.3206 -10.9603 -7.98788 0.0708163 -0.0189569 -0.997309
-0.536666 -10.2347 -7.94601 0.0708163 -0.0189569 -0.997309
-0.728754 -9.94093 -7.96524 0.0708163 -0.0189569 -0.997309
-0.496436 -11.2585 -7.9237 0.0708163 -0.0189569 -0.997309
-0.637911 -10.7214 -7.94395 0.0708163 -0.0189569 -0.997309
-0.107066 -11.2124 -7.89692 0.0708163 -0.0189569 -0.997309
-0.445823 -11.0151 -7.92473 0.0708163 -0.0189569 -0.997309
-0.152494 -10.8222 -7.90757 0.0708163 -0.0189569 -0.997309
-1.99811 -10.5658 -8.04349 0.0708163 -0.0189569 -0.997309
-1.90206 -10.7127 -8.03388 0.0708163 -0.0189569 -0.997309
-1.80082 -10.226 -8.03594 0.0708163 -0.0189569 -0.997309
-2.28624 -10.1251 -8.07233 0.0708163 -0.0189569 -0.997309
-2.09415 -10.4189 -8.0531 0.0708163 -0.0189569 -0.997309
-1.99291 -9.93221 -8.05517 0.0708163 -0.0189569 -0.997309
-1.60873 -10.5197 -8.01672 0.0708163 -0.0189569 -0.997309
-1.3154 -10.3268 -7.99956 0.0708163 -0.0189569 -0.997309
-1.50749 -10.033 -8.01878 0.0708163 -0.0189569 -0.997309
-1.40626 -9.54635 -8.02084 0.0708163 -0.0189569 -0.997309
-1.02208 -10.1339 -7.9824 0.0708163 -0.0189569 -0.997309
-0.344583 -10.5284 -7.92679 0.0708163 -0.0189569 -0.997309
-0.0512541 -10.3355 -7.90963 0.0708163 -0.0189569 -0.997309
0.242075 -10.1426 -7.89247 0.0708163 -0.0189569 -0.997309
0.140835 -10.6292 -7.89041 0.0708163 -0.0189569 -0.997309
-2.96894 -10.3641 -8.11626 0.0708163 -0.0189569 -0.997309
-2.77165 -10.0243 -8.10871 0.0708163 -0.0189569 -0.997309
-2.87289 -10.511 -8.10665 0.0708163 -0.0189569 -0.997309
-2.72623 -10.4145 -8.09807 0.0708163 -0.0189569 -0.997309
-2.57957 -10.3181 -8.08949 0.0708163 -0.0189569 -0.997309
-2.48352 -10.465 -8.07988 0.0708163 -0.0189569 -0.997309
-2.53414 -10.7083 -8.07885 0.0708163 -0.0189569 -0.997309
-2.24081 -10.5154 -8.06168 0.0708163 -0.0189569 -0.997309
-2.04872 -10.8091 -8.04246 0.0708163 -0.0189569 -0.997309
-2.14477 -10.6622 -8.05207 0.0708163 -0.0189569 -0.997309
10.9835 -4.7579 -7.2321 0.0708163 -0.0189569 -0.997309
11.0848 -4.27122 -7.23416 0.0708163 -0.0189569 -0.997309
11.4235 -4.4685 -7.20636 0.0708163 -0.0189569 -0.997309
11.4741 -4.22516 -7.20739 0.0708163 -0.0189569 -0.997309
11.5702 -4.37204 -7.19777 0.0708163 -0.0189569 -0.997309
11.3781 -4.07829 -7.217 0.0708163 -0.0189569 -0.997309
11.5248 -3.98182 -7.20842 0.0708163 -0.0189569 -0.997309
11.6714 -3.88535 -7.19984 0.0708163 -0.0189569 -0.997309
11.186 -3.78453 -7.23622 0.0708163 -0.0189569 -0.997309
11.722 -3.64201 -7.20087 0.0708163 -0.0189569 -0.997309
11.5754 -3.73847 -7.20945 0.0708163 -0.0189569 -0.997309
11.4793 -3.5916 -7.21906 0.0708163 -0.0189569 -0.997309
11.626 -3.49514 -7.21048 0.0708163 -0.0189569 -0.997309
11.8687 -3.54554 -7.19229 0.0708163 -0.0189569 -0.997309
9.50132 -7.62325 -7.28288 0.0708163 -0.0189569 -0.997309
9.55192 -7.37987 -7.28391 0.0708163 -0.0189569 -0.997309
9.21317 -7.18259 -7.31172 0.0708163 -0.0189569 -0.997309
9.02109 -6.88886 -7.33094 0.0708163 -0.0189569 -0.997309
9.31442 -6.69593 -7.31378 0.0708163 -0.0189569 -0.997309
9.60775 -6.50299 -7.29662 0.0708163 -0.0189569 -0.997309
9.50649 -6.98966 -7.29456 0.0708163 -0.0189569 -0.997309
9.69858 -7.2834 -7.27533 0.0708163 -0.0189569 -0.997309
9.99191 -7.09047 -7.25817 0.0708163 -0.0189569 -0.997309
9.90108 -6.31006 -7.27946 0.0708163 -0.0189569 -0.997309
10.1944 -6.11713 -7.26229 0.0708163 -0.0189569 -0.997309
10.2398 -6.50733 -7.25165 0.0708163 -0.0189569 -0.997309
10.3865 -6.41086 -7.24307 0.0708163 -0.0189569 -0.997309
10.4825 -6.55777 -7.23346 0.0708163 -0.0189569 -0.997309
10.0023 -5.82337 -7.28152 0.0708163 -0.0189569 -0.997309
10.2956 -5.63045 -7.26436 0.0708163 -0.0189569 -0.997309
10.7811 -5.73127 -7.22797 0.0708163 -0.0189569 -0.997309
10.589 -5.43751 -7.2472 0.0708163 -0.0189569 -0.997309
10.6344 -5.82773 -7.23655 0.0708163 -0.0189569 -0.997309
9.81024 -5.52963 -7.30074 0.0708163 -0.0189569 -0.997309
10.1036 -5.3367 -7.28358 0.0708163 -0.0189569 -0.997309
10.0127 -4.55626 -7.30487 0.0708163 -0.0189569 -0.997309
9.91147 -5.04294 -7.3028 0.0708163 -0.0189569 -0.997309
10.2048 -4.85001 -7.28564 0.0708163 -0.0189569 -0.997309
10.7915 -4.46415 -7.25132 0.0708163 -0.0189569 -0.997309
10.3969 -5.14377 -7.26642 0.0708163 -0.0189569 -0.997309
10.8823 -5.24458 -7.23003 0.0708163 -0.0189569 -0.997309
10.9277 -5.6348 -7.21939 0.0708163 -0.0189569 -0.997309
11.029 -5.14812 -7.22145 0.0708163 -0.0189569 -0.997309
10.6902 -4.95083 -7.24926 0.0708163 -0.0189569 -0.997309
10.9783 -5.39146 -7.22042 0.0708163 -0.0189569 -0.997309
11.2717 -5.19853 -7.20326 0.0708163 -0.0189569 -0.997309
10.5331 -6.31439 -7.23449 0.0708163 -0.0189569 -0.997309
10.5838 -6.0711 -7.23552 0.0708163 -0.0189569 -0.997309
10.4877 -5.9242 -7.24513 0.0708163 -0.0189569 -0.997309
10.7305 -5.97463 -7.22694 0.0708163 -0.0189569 -0.997309
7.49345 -9.36398 -7.39237 0.0708163 -0.0189569 -0.997309
7.25072 -9.31353 -7.41056 0.0708163 -0.0189569 -0.997309
7.35196 -8.82686 -7.41262 0.0708163 -0.0189569 -0.997309
7.54405 -9.1206 -7.3934 0.0708163 -0.0189569 -0.997309
7.39738 -9.21707 -7.40198 0.0708163 -0.0189569 -0.997309
7.69071 -9.02414 -7.38482 0.0708163 -0.0189569 -0.997309
7.64529 -8.63392 -7.39546 0.0708163 -0.0189569 -0.997309
7.78678 -9.17105 -7.37521 0.0708163 -0.0189569 -0.997309
6.86655 -8.72604 -7.44901 0.0708163 -0.0189569 -0.997309
7.01322 -8.62957 -7.44043 0.0708163 -0.0189569 -0.997309
6.9172 -8.48274 -7.45003 0.0708163 -0.0189569 -0.997309
6.86917 -8.40929 -7.45484 0.0708163 -0.0189569 -0.997309
6.99053 -8.43451 -7.44574 0.0708163 -0.0189569 -0.997309
7.06387 -8.38628 -7.44145 0.0708163 -0.0189569 -0.997309
6.97917 -8.33694 -7.44841 0.0708163 -0.0189569 -0.997309
7.15988 -8.53311 -7.43185 0.0708163 -0.0189569 -0.997309
7.01583 -8.31282 -7.44626 0.0708163 -0.0189569 -0.997309
7.04114 -8.19115 -7.44678 0.0708163 -0.0189569 -0.997309
7.11447 -8.14291 -7.44249 0.0708163 -0.0189569 -0.997309
7.08916 -8.26459 -7.44197 0.0708163 -0.0189569 -0.997309
7.1372 -8.33804 -7.43716 0.0708163 -0.0189569 -0.997309
7.1625 -8.21635 -7.43768 0.0708163 -0.0189569 -0.997309
7.21053 -8.28981 -7.43287 0.0708163 -0.0189569 -0.997309
7.45321 -8.34018 -7.41468 0.0708163 -0.0189569 -0.997309
7.30654 -8.43664 -7.42326 0.0708163 -0.0189569 -0.997309
7.74653 -8.14725 -7.39752 0.0708163 -0.0189569 -0.997309
7.93861 -8.44099 -7.3783 0.0708163 -0.0189569 -0.997309
7.35719 -8.19335 -7.42429 0.0708163 -0.0189569 -0.997309
7.83737 -8.92767 -7.37624 0.0708163 -0.0189569 -0.997309
7.98404 -8.8312 -7.36766 0.0708163 -0.0189569 -0.997309
8.08011 -8.97812 -7.35804 0.0708163 -0.0189569 -0.997309
8.22677 -8.88166 -7.34946 0.0708163 -0.0189569 -0.997309
8.1307 -8.73474 -7.35908 0.0708163 -0.0189569 -0.997309
8.27737 -8.63827 -7.3505 0.0708163 -0.0189569 -0.997309
8.42403 -8.54181 -7.34192 0.0708163 -0.0189569 -0.997309
8.14112 -7.46765 -7.38242 0.0708163 -0.0189569 -0.997309
8.43445 -7.27472 -7.36526 0.0708163 -0.0189569 -0.997309
8.72777 -7.08179 -7.3481 0.0708163 -0.0189569 -0.997309
8.66676 -8.59225 -7.32372 0.0708163 -0.0189569 -0.997309
8.71735 -8.34887 -7.32476 0.0708163 -0.0189569 -0.997309
8.57069 -8.44534 -7.33334 0.0708163 -0.0189569 -0.997309
8.52527 -8.05513 -7.34398 0.0708163 -0.0189569 -0.997309
8.23194 -8.24806 -7.36114 0.0708163 -0.0189569 -0.997309
8.03986 -7.95431 -7.38036 0.0708163 -0.0189569 -0.997309
7.84779 -7.66059 -7.39958 0.0708163 -0.0189569 -0.997309
8.62652 -7.56845 -7.34604 0.0708163 -0.0189569 -0.997309
8.91985 -7.37552 -7.32888 0.0708163 -0.0189569 -0.997309
9.25859 -7.5728 -7.30108 0.0708163 -0.0189569 -0.997309
9.11193 -7.66926 -7.30966 0.0708163 -0.0189569 -0.997309
8.8186 -7.8622 -7.32682 0.0708163 -0.0189569 -0.997309
9.35466 -7.71971 -7.29146 0.0708163 -0.0189569 -0.997309
9.208 -7.81618 -7.30004 0.0708163 -0.0189569 -0.997309
9.40525 -7.47634 -7.29249 0.0708163 -0.0189569 -0.997309
4.85868 -10.4668 -7.55849 0.0708163 -0.0189569 -0.997309
5.10141 -10.5172 -7.5403 0.0708163 -0.0189569 -0.997309
4.51994 -10.2695 -7.5863 0.0708163 -0.0189569 -0.997309
4.62119 -9.78284 -7.58836 0.0708163 -0.0189569 -0.997309
4.81326 -10.0766 -7.56913 0.0708163 -0.0189569 -0.997309
5.00534 -10.3703 -7.54991 0.0708163 -0.0189569 -0.997309
5.10659 -9.88363 -7.55197 0.0708163 -0.0189569 -0.997309
5.592 -9.98445 -7.51559 0.0708163 -0.0189569 -0.997309
5.69325 -9.49777 -7.51765 0.0708163 -0.0189569 -0.997309
5.49076 -10.4711 -7.51353 0.0708163 -0.0189569 -0.997309
5.29867 -10.1774 -7.53275 0.0708163 -0.0189569 -0.997309
5.63742 -10.3747 -7.50495 0.0708163 -0.0189569 -0.997309
5.93074 -10.1817 -7.48779 0.0708163 -0.0189569 -0.997309
4.32787 -9.97576 -7.60552 0.0708163 -0.0189569 -0.997309
4.91452 -9.5899 -7.5712 0.0708163 -0.0189569 -0.997309
5.99179 -8.6713 -7.51216 0.0708163 -0.0189569 -0.997309
6.23449 -8.72171 -7.49397 0.0708163 -0.0189569 -0.997309
6.07741 -10.0853 -7.47921 0.0708163 -0.0189569 -0.997309
6.37074 -9.89233 -7.46204 0.0708163 -0.0189569 -0.997309
6.22407 -9.9888 -7.47062 0.0708163 -0.0189569 -0.997309
6.17866 -9.59858 -7.48127 0.0708163 -0.0189569 -0.997309
6.47198 -9.40565 -7.46411 0.0708163 -0.0189569 -0.997309
6.5174 -9.79586 -7.45346 0.0708163 -0.0189569 -0.997309
5.88533 -9.79151 -7.49843 0.0708163 -0.0189569 -0.997309
6.18389 -8.96507 -7.49294 0.0708163 -0.0189569 -0.997309
5.98658 -9.30483 -7.50049 0.0708163 -0.0189569 -0.997309
6.2799 -9.1119 -7.48333 0.0708163 -0.0189569 -0.997309
6.57323 -8.91897 -7.46617 0.0708163 -0.0189569 -0.997309
6.42656 -9.01544 -7.47475 0.0708163 -0.0189569 -0.997309
6.33055 -8.86861 -7.48436 0.0708163 -0.0189569 -0.997309
6.28251 -8.79515 -7.48916 0.0708163 -0.0189569 -0.997309
6.08783 -8.81818 -7.50255 0.0708163 -0.0189569 -0.997309
6.40388 -8.82037 -7.48007 0.0708163 -0.0189569 -0.997309
6.35585 -8.74692 -7.48487 0.0708163 -0.0189569 -0.997309
6.47721 -8.77214 -7.47578 0.0708163 -0.0189569 -0.997309
6.55054 -8.72391 -7.47149 0.0708163 -0.0189569 -0.997309
6.46584 -8.67457 -7.47844 0.0708163 -0.0189569 -0.997309
6.77054 -8.57921 -7.45862 0.0708163 -0.0189569 -0.997309
6.71989 -8.82251 -7.45759 0.0708163 -0.0189569 -0.997309
6.76531 -9.21272 -7.44694 0.0708163 -0.0189569 -0.997309
6.66407 -9.6994 -7.44488 0.0708163 -0.0189569 -0.997309
6.9068 -9.74985 -7.42669 0.0708163 -0.0189569 -0.997309
6.81073 -9.60293 -7.4363 0.0708163 -0.0189569 -0.997309
7.05864 -9.01979 -7.42978 0.0708163 -0.0189569 -0.997309
6.95739 -9.50646 -7.42772 0.0708163 -0.0189569 -0.997309
7.10406 -9.41 -7.41914 0.0708163 -0.0189569 -0.997309
2.81062 -11.1838 -7.69029 0.0708163 -0.0189569 -0.997309
2.86123 -10.9404 -7.69132 0.0708163 -0.0189569 -0.997309
3.15455 -10.7475 -7.67416 0.0708163 -0.0189569 -0.997309
2.95729 -11.0873 -7.68171 0.0708163 -0.0189569 -0.997309
1.93583 -11.129 -7.75345 0.0708163 -0.0189569 -0.997309
2.08249 -11.0325 -7.74487 0.0708163 -0.0189569 -0.997309
2.18373 -10.5459 -7.74693 0.0708163 -0.0189569 -0.997309
2.37582 -10.8396 -7.72771 0.0708163 -0.0189569 -0.997309
2.42124 -11.2298 -7.71706 0.0708163 -0.0189569 -0.997309
1.89041 -10.7388 -7.76409 0.0708163 -0.0189569 -0.997309
1.59708 -10.9317 -7.78125 0.0708163 -0.0189569 -0.997309
1.99165 -10.2521 -7.76615 0.0708163 -0.0189569 -0.997309
2.28497 -10.0592 -7.74899 0.0708163 -0.0189569 -0.997309
2.77038 -10.16 -7.71261 0.0708163 -0.0189569 -0.997309
2.71457 -11.0369 -7.6999 0.0708163 -0.0189569 -0.997309
2.66915 -10.6467 -7.71055 0.0708163 -0.0189569 -0.997309
2.47706 -10.3529 -7.72977 0.0708163 -0.0189569 -0.997309
2.96247 -10.4537 -7.69339 0.0708163 -0.0189569 -0.997309
2.57829 -9.86624 -7.73183 0.0708163 -0.0189569 -0.997309
3.34663 -11.0412 -7.65494 0.0708163 -0.0189569 -0.997309
3.44788 -10.5546 -7.657 0.0708163 -0.0189569 -0.997309
3.49329 -10.9448 -7.64636 0.0708163 -0.0189569 -0.997309
3.63995 -10.8483 -7.63778 0.0708163 -0.0189569 -0.997309
4.12537 -10.9491 -7.60139 0.0708163 -0.0189569 -0.997309
4.22661 -10.4624 -7.60346 0.0708163 -0.0189569 -0.997309
3.93328 -10.6554 -7.62062 0.0708163 -0.0189569 -0.997309
4.51476 -10.9031 -7.57462 0.0708163 -0.0189569 -0.997309
4.56536 -10.6597 -7.57565 0.0708163 -0.0189569 -0.997309
4.71202 -10.5632 -7.56707 0.0708163 -0.0189569 -0.997309
4.66142 -10.8066 -7.56604 0.0708163 -0.0189569 -0.997309
0.0395943 -11.1159 -7.88834 0.0708163 -0.0189569 -0.997309
0.186263 -11.0195 -7.87976 0.0708163 -0.0189569 -0.997309
0.428964 -11.0699 -7.86157 0.0708163 -0.0189569 -0.997309
0.525011 -11.2168 -7.85196 0.0708163 -0.0189569 -0.997309
0.332923 -10.923 -7.87118 0.0708163 -0.0189569 -0.997309
0.671671 -11.1203 -7.84338 0.0708163 -0.0189569 -0.997309
0.621053 -11.3636 -7.84235 0.0708163 -0.0189569 -0.997309
0.81834 -11.0238 -7.8348 0.0708163 -0.0189569 -0.997309
0.914381 -11.1707 -7.82519 0.0708163 -0.0189569 -0.997309
0.626252 -10.7301 -7.85402 0.0708163 -0.0189569 -0.997309
1.40499 -10.638 -7.80048 0.0708163 -0.0189569 -0.997309
1.11167 -10.8309 -7.81764 0.0708163 -0.0189569 -0.997309
1.15709 -11.2211 -7.80699 0.0708163 -0.0189569 -0.997309
1.56945 11.036 -8.20078 0.0708163 -0.0189569 -0.997309
1.68237 11.0328 -8.1927 0.0708163 -0.0189569 -0.997309
1.58165 10.9031 -8.19738 0.0708163 -0.0189569 -0.997309
1.72832 10.9996 -8.1888 0.0708163 -0.0189569 -0.997309
1.45649 11.0381 -8.20884 0.0708163 -0.0189569 -0.997309
1.23054 11.0387 -8.22489 0.0708163 -0.0189569 -0.997309
1.43499 10.8067 -8.20597 0.0708163 -0.0189569 -0.997309
1.11758 11.0373 -8.23289 0.0708163 -0.0189569 -0.997309
1.19228 10.8571 -8.22416 0.0708163 -0.0189569 -0.997309
1.79526 11.0285 -8.1846 0.0708163 -0.0189569 -0.997309
2.69559 10.953 -8.11924 0.0708163 -0.0189569 -0.997309
2.80761 10.9385 -8.11101 0.0708163 -0.0189569 -0.997309
2.84581 10.8944 -8.10746 0.0708163 -0.0189569 -0.997309
2.58343 10.9665 -8.12746 0.0708163 -0.0189569 -0.997309
2.69914 10.7979 -8.11604 0.0708163 -0.0189569 -0.997309
2.30978 10.7519 -8.14281 0.0708163 -0.0189569 -0.997309
2.45644 10.8483 -8.13423 0.0708163 -0.0189569 -0.997309
1.82437 10.8527 -8.17919 0.0708163 -0.0189569 -0.997309
1.9081 11.0231 -8.17649 0.0708163 -0.0189569 -0.997309
2.06707 10.8023 -8.161 0.0708163 -0.0189569 -0.997309
2.13357 11.0087 -8.1602 0.0708163 -0.0189569 -0.997309
1.97103 10.9492 -8.17061 0.0708163 -0.0189569 -0.997309
2.21373 10.8988 -8.15242 0.0708163 -0.0189569 -0.997309
0.21543 10.9852 -8.29596 0.0708163 -0.0189569 -0.997309
0.170842 10.8154 -8.29589 0.0708163 -0.0189569 -0.997309
-0.607887 10.7232 -8.34944 0.0708163 -0.0189569 -0.997309
-0.456904 10.8985 -8.34205 0.0708163 -0.0189569 -0.997309
-0.461227 10.8197 -8.34086 0.0708163 -0.0189569 -0.997309
-0.218544 10.7693 -8.32267 0.0708163 -0.0189569 -0.997309
-0.233357 10.9319 -8.32681 0.0708163 -0.0189569 -0.997309
-0.568372 10.8801 -8.34962 0.0708163 -0.0189569 -0.997309
-0.679724 10.8606 -8.35715 0.0708163 -0.0189569 -0.997309
0.317502 10.9118 -8.28731 0.0708163 -0.0189569 -0.997309
0.706872 10.9579 -8.26054 0.0708163 -0.0189569 -0.997309
0.55323 11.0133 -8.27251 0.0708163 -0.0189569 -0.997309
0.802919 10.811 -8.25093 0.0708163 -0.0189569 -0.997309
0.778823 11.0263 -8.25673 0.0708163 -0.0189569 -0.997309
0.413544 10.765 -8.2777 0.0708163 -0.0189569 -0.997309
0.440542 11.0051 -8.28035 0.0708163 -0.0189569 -0.997309
0.327937 10.9958 -8.28817 0.0708163 -0.0189569 -0.997309
0.386413 9.28252 -8.25145 0.0708163 -0.0189569 -0.997309
3.42726 10.6467 -8.06146 0.0708163 -0.0189569 -0.997309
3.36519 10.8489 -8.06971 0.0708163 -0.0189569 -0.997309
3.58683 10.8052 -8.05314 0.0708163 -0.0189569 -0.997309
2.91947 10.9228 -8.10277 0.0708163 -0.0189569 -0.997309
3.1427 10.8881 -8.08625 0.0708163 -0.0189569 -0.997309
3.33122 10.7936 -8.07107 0.0708163 -0.0189569 -0.997309
3.08852 10.844 -8.08926 0.0708163 -0.0189569 -0.997309
2.94186 10.7475 -8.09784 0.0708163 -0.0189569 -0.997309
4.15539 10.4955 -8.00688 0.0708163 -0.0189569 -0.997309
4.13668 10.6764 -8.01165 0.0708163 -0.0189569 -0.997309
4.30205 10.5919 -7.9983 0.0708163 -0.0189569 -0.997309
4.35468 10.6172 -7.99504 0.0708163 -0.0189569 -0.997309
3.81664 10.6928 -8.03469 0.0708163 -0.0189569 -0.997309
3.80755 10.757 -8.03655 0.0708163 -0.0189569 -0.997309
4.02724 10.7044 -8.01995 0.0708163 -0.0189569 -0.997309
3.91752 10.7313 -8.02825 0.0708163 -0.0189569 -0.997309
1.57127 9.63599 -8.17404 0.0708163 -0.0189569 -0.997309
1.6725 10.1227 -8.1761 0.0708163 -0.0189569 -0.997309
0.521294 9.29472 -8.24211 0.0708163 -0.0189569 -0.997309
0.656335 9.305 -8.23271 0.0708163 -0.0189569 -0.997309
0.791508 9.31334 -8.22327 0.0708163 -0.0189569 -0.997309
0.307105 9.6447 -8.26397 0.0708163 -0.0189569 -0.997309
0.926775 9.31976 -8.21379 0.0708163 -0.0189569 -0.997309
1.06213 9.32425 -8.20426 0.0708163 -0.0189569 -0.997309
1.08585 9.73682 -8.21042 0.0708163 -0.0189569 -0.997309
2.35 9.7281 -8.12049 0.0708163 -0.0189569 -0.997309
2.27908 9.27772 -8.11697 0.0708163 -0.0189569 -0.997309
2.41367 9.26292 -8.10713 0.0708163 -0.0189569 -0.997309
1.19752 9.3268 -8.1947 0.0708163 -0.0189569 -0.997309
2.1443 9.2906 -8.12678 0.0708163 -0.0189569 -0.997309
1.73902 9.3177 -8.15608 0.0708163 -0.0189569 -0.997309
2.15792 10.0219 -8.13972 0.0708163 -0.0189569 -0.997309
-2.63821 10.3196 -8.48594 0.0708163 -0.0189569 -0.997309
-2.60535 10.2496 -8.48227 0.0708163 -0.0189569 -0.997309
-2.53223 10.359 -8.47916 0.0708163 -0.0189569 -0.997309
-3.26546 10.0615 -8.52557 0.0708163 -0.0189569 -0.997309
-3.05811 10.1517 -8.51256 0.0708163 -0.0189569 -0.997309
-3.16203 10.1072 -8.51909 0.0708163 -0.0189569 -0.997309
-3.04535 9.96019 -8.50801 0.0708163 -0.0189569 -0.997309
-1.92269 10.4886 -8.43834 0.0708163 -0.0189569 -0.997309
-1.77991 10.6039 -8.43039 0.0708163 -0.0189569 -0.997309
-1.67113 10.6346 -8.42325 0.0708163 -0.0189569 -0.997309
-1.53329 10.5346 -8.41156 0.0708163 -0.0189569 -0.997309
-2.06935 10.3922 -8.44692 0.0708163 -0.0189569 -0.997309
-2.21192 10.4705 -8.45853 0.0708163 -0.0189569 -0.997309
-2.31903 10.4343 -8.46545 0.0708163 -0.0189569 -0.997309
-1.88842 10.5722 -8.4375 0.0708163 -0.0189569 -0.997309
-2.36267 10.1992 -8.46408 0.0708163 -0.0189569 -0.997309
-1.34297 10.7199 -8.40157 0.0708163 -0.0189569 -0.997309
-4.16806 9.43185 -8.57769 0.0708163 -0.0189569 -0.997309
-3.87608 9.76587 -8.56331 0.0708163 -0.0189569 -0.997309
-3.97607 9.71301 -8.5694 0.0708163 -0.0189569 -0.997309
-4.02139 9.52832 -8.56911 0.0708163 -0.0189569 -0.997309
-4.07554 9.65918 -8.57544 0.0708163 -0.0189569 -0.997309
-3.77554 9.81766 -8.55715 0.0708163 -0.0189569 -0.997309
-4.94496 9.13023 -8.62712 0.0708163 -0.0189569 -0.997309
-4.75471 9.04599 -8.61201 0.0708163 -0.0189569 -0.997309
-4.4678 9.43381 -8.59901 0.0708163 -0.0189569 -0.997309
-4.60805 9.14245 -8.60343 0.0708163 -0.0189569 -0.997309
-4.75594 9.25456 -8.61607 0.0708163 -0.0189569 -0.997309
-4.56444 9.37502 -8.60476 0.0708163 -0.0189569 -0.997309
-3.47097 9.96708 -8.53837 0.0708163 -0.0189569 -0.997309
-3.28807 10.0106 -8.52621 0.0708163 -0.0189569 -0.997309
-3.57298 9.91827 -8.54468 0.0708163 -0.0189569 -0.997309
-3.5814 9.81771 -8.54337 0.0708163 -0.0189569 -0.997309
-4.17442 9.6043 -8.58142 0.0708163 -0.0189569 -0.997309
-3.87473 9.62478 -8.56053 0.0708163 -0.0189569 -0.997309
-4.46138 9.23892 -8.59485 0.0708163 -0.0189569 -0.997309
-4.66051 9.3153 -8.61044 0.0708163 -0.0189569 -0.997309
-4.31472 9.33538 -8.58627 0.0708163 -0.0189569 -0.997309
-0.997285 10.6772 -8.37621 0.0708163 -0.0189569 -0.997309
-1.01238 10.7953 -8.37953 0.0708163 -0.0189569 -0.997309
-0.790796 10.8399 -8.36465 0.0708163 -0.0189569 -0.997309
-0.754547 10.6268 -8.35802 0.0708163 -0.0189569 -0.997309
-0.850616 10.7737 -8.36763 0.0708163 -0.0189569 -0.997309
-1.14394 10.5807 -8.3848 0.0708163 -0.0189569 -0.997309
-1.44246 9.75423 -8.39028 0.0708163 -0.0189569 -0.997309
-1.14913 9.94717 -8.37312 0.0708163 -0.0189569 -0.997309
0.0137844 9.45178 -8.28113 0.0708163 -0.0189569 -0.997309
-0.418052 9.16906 -8.30642 0.0708163 -0.0189569 -0.997309
0.117227 9.25236 -8.26999 0.0708163 -0.0189569 -0.997309
-1.07915 9.02223 -8.35057 0.0708163 -0.0189569 -0.997309
-1.21003 8.98723 -8.3592 0.0708163 -0.0189569 -0.997309
-1.5437 9.26755 -8.38822 0.0708163 -0.0189569 -0.997309
-0.764961 9.35966 -8.33467 0.0708163 -0.0189569 -0.997309
-1.85629 8.78442 -8.40123 0.0708163 -0.0189569 -0.997309
-2.42368 8.68875 -8.4397 0.0708163 -0.0189569 -0.997309
-3.80147 7.83598 -8.52133 0.0708163 -0.0189569 -0.997309
-3.49575 8.40371 -8.51041 0.0708163 -0.0189569 -0.997309
-3.45393 8.04725 -8.50066 0.0708163 -0.0189569 -0.997309
-3.78908 8.21078 -8.52757 0.0708163 -0.0189569 -0.997309
-1.98374 8.73836 -8.40941 0.0708163 -0.0189569 -0.997309
-1.72821 8.82867 -8.39298 0.0708163 -0.0189569 -0.997309
-2.9091 8.78958 -8.47609 0.0708163 -0.0189569 -0.997309
-2.85578 8.36574 -8.46424 0.0708163 -0.0189569 -0.997309
-2.36196 8.58934 -8.43343 0.0708163 -0.0189569 -0.997309
-2.48659 8.53608 -8.44127 0.0708163 -0.0189569 -0.997309
-2.73352 8.42427 -8.45668 0.0708163 -0.0189569 -0.997309
-2.23659 8.64081 -8.42551 0.0708163 -0.0189569 -0.997309
-1.47025 8.91165 -8.37624 0.0708163 -0.0189569 -0.997309
-1.34041 8.95036 -8.36775 0.0708163 -0.0189569 -0.997309
7.64415 9.0093 -7.73091 0.0708163 -0.0189569 -0.997309
7.4014 9.05968 -7.7491 0.0708163 -0.0189569 -0.997309
7.80113 8.96469 -7.71891 0.0708163 -0.0189569 -0.997309
7.49745 8.91281 -7.73949 0.0708163 -0.0189569 -0.997309
7.23732 9.34091 -7.7661 0.0708163 -0.0189569 -0.997309
7.33284 9.2806 -7.75817 0.0708163 -0.0189569 -0.997309
7.42772 9.21928 -7.75027 0.0708163 -0.0189569 -0.997309
7.83624 8.71555 -7.71168 0.0708163 -0.0189569 -0.997309
8.51565 8.41129 -7.65766 0.0708163 -0.0189569 -0.997309
8.60977 8.17409 -7.64646 0.0708163 -0.0189569 -0.997309
8.68712 8.26404 -7.64268 0.0708163 -0.0189569 -0.997309
8.85559 8.11335 -7.62785 0.0708163 -0.0189569 -0.997309
8.77178 8.18915 -7.63525 0.0708163 -0.0189569 -0.997309
8.16398 8.69523 -7.68802 0.0708163 -0.0189569 -0.997309
8.07428 8.76396 -7.6957 0.0708163 -0.0189569 -0.997309
8.27098 8.37136 -7.67427 0.0708163 -0.0189569 -0.997309
6.55223 9.73569 -7.82225 0.0708163 -0.0189569 -0.997309
6.28913 9.79844 -7.84212 0.0708163 -0.0189569 -0.997309
6.65178 9.68228 -7.81416 0.0708163 -0.0189569 -0.997309
6.75078 9.62785 -7.8061 0.0708163 -0.0189569 -0.997309
5.84107 10.0811 -7.87931 0.0708163 -0.0189569 -0.997309
6.14246 9.70197 -7.8507 0.0708163 -0.0189569 -0.997309
5.94413 10.0348 -7.87111 0.0708163 -0.0189569 -0.997309
6.62788 9.60115 -7.81432 0.0708163 -0.0189569 -0.997309
6.94714 9.51604 -7.79003 0.0708163 -0.0189569 -0.997309
7.04445 9.45864 -7.78203 0.0708163 -0.0189569 -0.997309
6.72392 9.45428 -7.80471 0.0708163 -0.0189569 -0.997309
7.58832 8.13239 -7.7182 0.0708163 -0.0189569 -0.997309
7.78041 7.83863 -7.69898 0.0708163 -0.0189569 -0.997309
7.00167 7.74652 -7.75252 0.0708163 -0.0189569 -0.997309
9.33266 7.38926 -7.58022 0.0708163 -0.0189569 -0.997309
9.67144 7.19201 -7.55241 0.0708163 -0.0189569 -0.997309
9.65077 7.31068 -7.55613 0.0708163 -0.0189569 -0.997309
9.76749 7.04513 -7.5428 0.0708163 -0.0189569 -0.997309
9.79986 7.14071 -7.54232 0.0708163 -0.0189569 -0.997309
9.1026 7.88107 -7.6059 0.0708163 -0.0189569 -0.997309
9.42076 7.55986 -7.5772 0.0708163 -0.0189569 -0.997309
9.34241 7.64136 -7.58431 0.0708163 -0.0189569 -0.997309
9.5754 7.33888 -7.56202 0.0708163 -0.0189569 -0.997309
10.0877 6.79195 -7.51525 0.0708163 -0.0189569 -0.997309
10.4925 6.24767 -7.47616 0.0708163 -0.0189569 -0.997309
9.86353 6.89825 -7.53319 0.0708163 -0.0189569 -0.997309
10.2477 6.31075 -7.49474 0.0708163 -0.0189569 -0.997309
8.94848 7.97677 -7.61866 0.0708163 -0.0189569 -0.997309
8.93873 8.03677 -7.6205 0.0708163 -0.0189569 -0.997309
9.04452 7.8299 -7.60905 0.0708163 -0.0189569 -0.997309
9.14057 7.68302 -7.59944 0.0708163 -0.0189569 -0.997309
9.23661 7.53615 -7.58983 0.0708163 -0.0189569 -0.997309
8.25543 6.47069 -7.63925 0.0708163 -0.0189569 -0.997309
8.54875 6.66362 -7.62209 0.0708163 -0.0189569 -0.997309
9.4287 7.24239 -7.5706 0.0708163 -0.0189569 -0.997309
8.93293 6.07611 -7.58364 0.0708163 -0.0189569 -0.997309
8.76205 5.71114 -7.58883 0.0708163 -0.0189569 -0.997309
9.3171 5.48861 -7.54519 0.0708163 -0.0189569 -0.997309
8.92682 5.49594 -7.57304 0.0708163 -0.0189569 -0.997309
8.8452 5.60413 -7.5809 0.0708163 -0.0189569 -0.997309
8.50358 6.02491 -7.61315 0.0708163 -0.0189569 -0.997309
8.32394 6.2278 -7.62976 0.0708163 -0.0189569 -0.997309
8.23197 6.3273 -7.63819 0.0708163 -0.0189569 -0.997309
8.59122 5.92156 -7.60496 0.0708163 -0.0189569 -0.997309
5.2134 10.3366 -7.92874 0.0708163 -0.0189569 -0.997309
5.22226 10.147 -7.9245 0.0708163 -0.0189569 -0.997309
4.67932 10.5201 -7.97015 0.0708163 -0.0189569 -0.997309
4.78687 10.4855 -7.96185 0.0708163 -0.0189569 -0.997309
4.88351 10.3442 -7.95231 0.0708163 -0.0189569 -0.997309
5.00089 10.4132 -7.94528 0.0708163 -0.0189569 -0.997309
5.46497 10.0965 -7.90631 0.0708163 -0.0189569 -0.997309
5.63358 10.1705 -7.89574 0.0708163 -0.0189569 -0.997309
5.44359 8.77535 -7.88271 0.0708163 -0.0189569 -0.997309
5.45458 8.82942 -7.88296 0.0708163 -0.0189569 -0.997309
5.4154 8.7506 -7.88425 0.0708163 -0.0189569 -0.997309
5.42433 10.2556 -7.91222 0.0708163 -0.0189569 -0.997309
5.36893 10.2434 -7.91592 0.0708163 -0.0189569 -0.997309
3.32083 9.52646 -8.04772 0.0708163 -0.0189569 -0.997309
3.74261 9.00999 -8.00796 0.0708163 -0.0189569 -0.997309
3.47993 9.07571 -8.02786 0.0708163 -0.0189569 -0.997309
3.0275 9.33353 -8.06488 0.0708163 -0.0189569 -0.997309
2.83542 9.62729 -8.08411 0.0708163 -0.0189569 -0.997309
3.34791 9.10576 -8.0378 0.0708163 -0.0189569 -0.997309
3.21548 9.13391 -8.04774 0.0708163 -0.0189569 -0.997309
3.51292 9.23271 -8.0285 0.0708163 -0.0189569 -0.997309
4.96916 8.93025 -7.91935 0.0708163 -0.0189569 -0.997309
5.02205 8.57059 -7.90876 0.0708163 -0.0189569 -0.997309
5.16125 8.63649 -7.90012 0.0708163 -0.0189569 -0.997309
4.48375 9.03106 -7.95573 0.0708163 -0.0189569 -0.997309
3.99834 9.13189 -7.99212 0.0708163 -0.0189569 -0.997309
4.0033 8.9368 -7.98805 0.0708163 -0.0189569 -0.997309
3.87321 8.97433 -7.998 0.0708163 -0.0189569 -0.997309
4.39016 8.81314 -7.95823 0.0708163 -0.0189569 -0.997309
5.38124 8.78119 -7.88725 0.0708163 -0.0189569 -0.997309
5.93999 8.7286 -7.84658 0.0708163 -0.0189569 -0.997309
6.80958 8.04028 -7.77175 0.0708163 -0.0189569 -0.997309
5.91468 8.60693 -7.84606 0.0708163 -0.0189569 -0.997309
7.34334 7.1609 -7.71713 0.0708163 -0.0189569 -0.997309
7.54992 6.98564 -7.69913 0.0708163 -0.0189569 -0.997309
7.44726 7.074 -7.7081 0.0708163 -0.0189569 -0.997309
7.87125 7.0582 -7.67769 0.0708163 -0.0189569 -0.997309
7.85023 6.71187 -7.6726 0.0708163 -0.0189569 -0.997309
7.67917 7.35194 -7.69692 0.0708163 -0.0189569 -0.997309
8.06334 6.76444 -7.65847 0.0708163 -0.0189569 -0.997309
5.86666 8.68037 -7.85087 0.0708163 -0.0189569 -0.997309
5.48099 8.77344 -7.88002 0.0708163 -0.0189569 -0.997309
5.36683 8.65409 -7.88586 0.0708163 -0.0189569 -0.997309
5.14626 8.51671 -7.89891 0.0708163 -0.0189569 -0.997309
5.62395 8.73079 -7.86906 0.0708163 -0.0189569 -0.997309
6.03474 8.42334 -7.83405 0.0708163 -0.0189569 -0.997309
6.0714 8.44745 -7.8319 0.0708163 -0.0189569 -0.997309
5.98607 8.34164 -7.83595 0.0708163 -0.0189569 -0.997309
6.08145 8.19151 -7.82632 0.0708163 -0.0189569 -0.997309
6.12421 8.0145 -7.81992 0.0708163 -0.0189569 -0.997309
6.46974 7.80086 -7.79133 0.0708163 -0.0189569 -0.997309
6.35558 7.87371 -7.80082 0.0708163 -0.0189569 -0.997309
8.04384 6.52231 -7.65525 0.0708163 -0.0189569 -0.997309
-5.13144 9.00209 -8.63793 0.0708163 -0.0189569 -0.997309
-5.58613 8.66561 -8.66382 0.0708163 -0.0189569 -0.997309
-5.78136 8.37072 -8.67208 0.0708163 -0.0189569 -0.997309
-6.02333 8.30658 -8.68804 0.0708163 -0.0189569 -0.997309
-5.63469 8.46719 -8.6635 0.0708163 -0.0189569 -0.997309
-5.93733 8.38012 -8.68333 0.0708163 -0.0189569 -0.997309
-5.34136 8.66012 -8.64633 0.0708163 -0.0189569 -0.997309
-6.22134 8.08133 -8.69782 0.0708163 -0.0189569 -0.997309
-6.12528 7.93441 -8.6882 0.0708163 -0.0189569 -0.997309
-6.44202 7.92602 -8.71054 0.0708163 -0.0189569 -0.997309
-6.27194 7.83795 -8.69678 0.0708163 -0.0189569 -0.997309
-5.04804 8.85305 -8.62917 0.0708163 -0.0189569 -0.997309
-5.03854 9.06666 -8.63256 0.0708163 -0.0189569 -0.997309
-6.52343 7.84738 -8.71482 0.0708163 -0.0189569 -0.997309
-6.4186 7.74148 -8.70537 0.0708163 -0.0189569 -0.997309
-6.56526 7.64502 -8.71395 0.0708163 -0.0189569 -0.997309
-6.71193 7.54855 -8.72253 0.0708163 -0.0189569 -0.997309
-6.7629 7.60669 -8.72725 0.0708163 -0.0189569 -0.997309
-6.90924 7.20879 -8.73008 0.0708163 -0.0189569 -0.997309
-7.14554 7.18973 -8.7465 0.0708163 -0.0189569 -0.997309
-6.91846 7.44222 -8.73517 0.0708163 -0.0189569 -0.997309
-6.85859 7.45208 -8.73111 0.0708163 -0.0189569 -0.997309
-7.05591 7.11232 -8.73866 0.0708163 -0.0189569 -0.997309
-7.29268 7.01766 -8.75367 0.0708163 -0.0189569 -0.997309
-7.21957 7.10411 -8.75012 0.0708163 -0.0189569 -0.997309
-7.57643 6.66478 -8.76711 0.0708163 -0.0189569 -0.997309
-7.71289 6.48408 -8.77337 0.0708163 -0.0189569 -0.997309
-7.64512 6.57478 -8.77028 0.0708163 -0.0189569 -0.997309
-7.59714 6.33624 -8.76234 0.0708163 -0.0189569 -0.997309
-7.43631 6.84263 -8.76054 0.0708163 -0.0189569 -0.997309
-4.02803 7.68696 -8.53458 0.0708163 -0.0189569 -0.997309
-5.94361 6.37357 -8.64564 0.0708163 -0.0189569 -0.997309
-5.09259 6.84847 -8.59423 0.0708163 -0.0189569 -0.997309
-4.57517 7.28669 -8.56582 0.0708163 -0.0189569 -0.997309
-4.78586 7.11583 -8.57754 0.0708163 -0.0189569 -0.997309
-4.68112 7.20202 -8.57174 0.0708163 -0.0189569 -0.997309
-5.19226 6.75647 -8.59956 0.0708163 -0.0189569 -0.997309
-4.88936 7.02818 -8.58322 0.0708163 -0.0189569 -0.997309
-5.38766 6.56824 -8.60986 0.0708163 -0.0189569 -0.997309
-5.57764 6.37453 -8.61967 0.0708163 -0.0189569 -0.997309
-5.76205 6.17547 -8.62898 0.0708163 -0.0189569 -0.997309
-5.85211 6.07399 -8.63344 0.0708163 -0.0189569 -0.997309
-5.94073 5.97125 -8.63778 0.0708163 -0.0189569 -0.997309
-7.50107 6.18933 -8.75273 0.0708163 -0.0189569 -0.997309
-6.23693 6.18064 -8.6628 0.0708163 -0.0189569 -0.997309
-6.72234 6.28146 -8.69918 0.0708163 -0.0189569 -0.997309
-7.01567 6.08853 -8.71634 0.0708163 -0.0189569 -0.997309
-7.97488 6.11468 -8.78495 0.0708163 -0.0189569 -0.997309
-7.89047 6.14331 -8.7795 0.0708163 -0.0189569 -0.997309
-7.94106 5.89993 -8.77847 0.0708163 -0.0189569 -0.997309
-7.7438 6.23978 -8.77092 0.0708163 -0.0189569 -0.997309
-7.7798 6.39274 -8.77638 0.0708163 -0.0189569 -0.997309
-6.19771 5.65557 -8.65003 0.0708163 -0.0189569 -0.997309
-6.6315 5.50103 -8.6779 0.0708163 -0.0189569 -0.997309
-6.59544 5.10597 -8.66783 0.0708163 -0.0189569 -0.997309
-6.67025 4.99274 -8.67099 0.0708163 -0.0189569 -0.997309
-7.02607 4.82141 -8.693 0.0708163 -0.0189569 -0.997309
-6.9532 4.52947 -8.68227 0.0708163 -0.0189569 -0.997309
-6.11354 5.76201 -8.64608 0.0708163 -0.0189569 -0.997309
-8.28504 5.4637 -8.7946 0.0708163 -0.0189569 -0.997309
-8.13838 5.56017 -8.78602 0.0708163 -0.0189569 -0.997309
-8.22186 5.73508 -8.79527 0.0708163 -0.0189569 -0.997309
-8.33957 5.54161 -8.79995 0.0708163 -0.0189569 -0.997309
-8.50878 5.24702 -8.80637 0.0708163 -0.0189569 -0.997309
-8.61664 5.04787 -8.81024 0.0708163 -0.0189569 -0.997309
-7.31939 4.62848 -8.71016 0.0708163 -0.0189569 -0.997309
-8.53293 4.88054 -8.80112 0.0708163 -0.0189569 -0.997309
-8.77087 4.74516 -8.81544 0.0708163 -0.0189569 -0.997309
-8.67959 4.78407 -8.8097 0.0708163 -0.0189569 -0.997309
-8.86859 4.54083 -8.81849 0.0708163 -0.0189569 -0.997309
-8.82025 4.64325 -8.81701 0.0708163 -0.0189569 -0.997309
-9.00744 4.23076 -8.82246 0.0708163 -0.0189569 -0.997309
-8.9622 4.33458 -8.82122 0.0708163 -0.0189569 -0.997309
-8.92749 4.20092 -8.81622 0.0708163 -0.0189569 -0.997309
-9.13688 3.91662 -8.82568 0.0708163 -0.0189569 -0.997309
-8.97811 3.95758 -8.81518 0.0708163 -0.0189569 -0.997309
-9.12478 3.86111 -8.82377 0.0708163 -0.0189569 -0.997309
-9.17792 3.81106 -8.82659 0.0708163 -0.0189569 -0.997309
-9.02874 3.71423 -8.81415 0.0708163 -0.0189569 -0.997309
-9.1754 3.61776 -8.82273 0.0708163 -0.0189569 -0.997309
-9.07935 3.47089 -8.81312 0.0708163 -0.0189569 -0.997309
-9.29465 3.49199 -8.82881 0.0708163 -0.0189569 -0.997309
-9.27664 3.13108 -8.82067 0.0708163 -0.0189569 -0.997309
-9.36711 3.27737 -8.82988 0.0708163 -0.0189569 -0.997309
-9.22601 3.37443 -8.8217 0.0708163 -0.0189569 -0.997309
-9.12997 3.22755 -8.81209 0.0708163 -0.0189569 -0.997309
-8.30061 3.563 -8.75958 0.0708163 -0.0189569 -0.997309
-7.32722 3.80628 -8.69508 0.0708163 -0.0189569 -0.997309
-7.52187 3.65511 -8.70603 0.0708163 -0.0189569 -0.997309
-9.32725 2.88774 -8.81964 0.0708163 -0.0189569 -0.997309
-9.47392 2.79127 -8.82822 0.0708163 -0.0189569 -0.997309
-7.8152 3.46218 -8.72319 0.0708163 -0.0189569 -0.997309
-7.08469 4.29199 -8.68709 0.0708163 -0.0189569 -0.997309
-7.80973 2.53862 -8.70525 0.0708163 -0.0189569 -0.997309
-7.68395 2.92594 -8.70368 0.0708163 -0.0189569 -0.997309
-7.95157 2.01452 -8.70536 0.0708163 -0.0189569 -0.997309
-7.54178 3.30756 -8.70084 0.0708163 -0.0189569 -0.997309
-9.55843 2.6254 -8.83107 0.0708163 -0.0189569 -0.997309
-9.52454 2.54793 -8.82719 0.0708163 -0.0189569 -0.997309
-9.58648 2.51567 -8.83098 0.0708163 -0.0189569 -0.997309
-9.66401 2.18486 -8.83019 0.0708163 -0.0189569 -0.997309
-9.63927 2.29539 -8.83054 0.0708163 -0.0189569 -0.997309
-9.68763 2.07409 -8.82976 0.0708163 -0.0189569 -0.997309
-9.47911 2.15772 -8.81655 0.0708163 -0.0189569 -0.997309
-9.62578 2.06125 -8.82513 0.0708163 -0.0189569 -0.997309
-9.7518 1.74044 -8.82798 0.0708163 -0.0189569 -0.997309
-9.73153 1.85187 -8.82866 0.0708163 -0.0189569 -0.997309
-9.6764 1.8179 -8.8241 0.0708163 -0.0189569 -0.997309
-9.52973 1.91437 -8.81552 0.0708163 -0.0189569 -0.997309
-9.72702 1.57456 -8.82307 0.0708163 -0.0189569 -0.997309
-9.80591 1.40501 -8.82545 0.0708163 -0.0189569 -0.997309
-9.84987 1.06812 -8.82216 0.0708163 -0.0189569 -0.997309
-9.83634 1.18057 -8.82334 0.0708163 -0.0189569 -0.997309
-9.68159 1.18434 -8.81242 0.0708163 -0.0189569 -0.997309
-9.49903 2.84399 -8.83101 0.0708163 -0.0189569 -0.997309
-9.52927 2.73485 -8.83108 0.0708163 -0.0189569 -0.997309
-7.01978 4.4112 -8.68475 0.0708163 -0.0189569 -0.997309
-7.98236 1.88231 -8.70503 0.0708163 -0.0189569 -0.997309
-8.06344 1.48322 -8.7032 0.0708163 -0.0189569 -0.997309
-8.03831 1.61663 -8.70395 0.0708163 -0.0189569 -0.997309
-8.10802 1.21541 -8.70128 0.0708163 -0.0189569 -0.997309
-8.08668 1.34947 -8.70231 0.0708163 -0.0189569 -0.997309
-8.51349 1.32251 -8.73211 0.0708163 -0.0189569 -0.997309
-8.12745 1.08106 -8.7001 0.0708163 -0.0189569 -0.997309
-8.16058 0.811594 -8.69733 0.0708163 -0.0189569 -0.997309
-8.42263 0.542069 -8.71082 0.0708163 -0.0189569 -0.997309
-8.20983 0.134811 -8.68797 0.0708163 -0.0189569 -0.997309
-8.52388 0.0553897 -8.70876 0.0708163 -0.0189569 -0.997309
-8.2139 -0.000859999 -8.68568 0.0708163 -0.0189569 -0.997309
-8.21605 -0.136583 -8.68325 0.0708163 -0.0189569 -0.997309
-9.63616 0.794123 -8.80178 0.0708163 -0.0189569 -0.997309
-9.78283 0.697654 -8.81036 0.0708163 -0.0189569 -0.997309
-9.83345 0.454316 -8.80933 0.0708163 -0.0189569 -0.997309
-9.90727 0.391146 -8.81337 0.0708163 -0.0189569 -0.997309
-9.91286 0.278035 -8.81162 0.0708163 -0.0189569 -0.997309
-8.57128 -0.442738 -8.70266 0.0708163 -0.0189569 -0.997309
-8.62512 -0.431297 -8.7067 0.0708163 -0.0189569 -0.997309
-8.69845 -0.479532 -8.71099 0.0708163 -0.0189569 -0.997309
-9.78803 0.0640927 -8.79869 0.0708163 -0.0189569 -0.997309
-9.83865 -0.179244 -8.79766 0.0708163 -0.0189569 -0.997309
-9.92379 -0.288017 -8.80163 0.0708163 -0.0189569 -0.997309
-9.7426 -0.326126 -8.78804 0.0708163 -0.0189569 -0.997309
-8.11892 2.00213 -8.71701 0.0708163 -0.0189569 -0.997309
-8.33179 -0.238365 -8.68953 0.0708163 -0.0189569 -0.997309
-8.65043 -0.552972 -8.70618 0.0708163 -0.0189569 -0.997309
-8.57218 -0.776854 -8.69637 0.0708163 -0.0189569 -0.997309
-8.21627 -0.272315 -8.68069 0.0708163 -0.0189569 -0.997309
-8.60241 -0.626405 -8.70137 0.0708163 -0.0189569 -0.997309
-8.67573 -0.674634 -8.70566 0.0708163 -0.0189569 -0.997309
-8.605 -0.943192 -8.69554 0.0708163 -0.0189569 -0.997309
-8.29156 -1.26214 -8.66722 0.0708163 -0.0189569 -0.997309
-8.33958 -1.1887 -8.67202 0.0708163 -0.0189569 -0.997309
-8.12941 -1.50661 -8.65106 0.0708163 -0.0189569 -0.997309
-8.14673 -1.37201 -8.65485 0.0708163 -0.0189569 -0.997309
-8.19552 -1.40902 -8.65761 0.0708163 -0.0189569 -0.997309
-8.48495 -1.12679 -8.68352 0.0708163 -0.0189569 -0.997309
-8.52161 -1.1509 -8.68567 0.0708163 -0.0189569 -0.997309
-8.34218 -1.50549 -8.66619 0.0708163 -0.0189569 -0.997309
-8.8224 -0.771103 -8.71424 0.0708163 -0.0189569 -0.997309
-8.56964 -1.07746 -8.69047 0.0708163 -0.0189569 -0.997309
-8.55092 -1.07529 -8.68919 0.0708163 -0.0189569 -0.997309
-8.08905 -1.77498 -8.64309 0.0708163 -0.0189569 -0.997309
-8.54566 -1.09369 -8.68846 0.0708163 -0.0189569 -0.997309
-8.63031 -1.06486 -8.69502 0.0708163 -0.0189569 -0.997309
-7.92247 -2.5716 -8.61612 0.0708163 -0.0189569 -0.997309
-7.85194 -2.83358 -8.60613 0.0708163 -0.0189569 -0.997309
-7.88815 -2.70284 -8.61119 0.0708163 -0.0189569 -0.997309
-8.25134 -2.28593 -8.6449 0.0708163 -0.0189569 -0.997309
-7.77399 -3.09346 -8.59566 0.0708163 -0.0189569 -0.997309
-7.59611 -3.60595 -8.57328 0.0708163 -0.0189569 -0.997309
-7.81389 -2.9638 -8.60096 0.0708163 -0.0189569 -0.997309
-9.92255 -0.401246 -8.79939 0.0708163 -0.0189569 -0.997309
-9.91205 -0.740778 -8.79219 0.0708163 -0.0189569 -0.997309
-9.89936 -0.966881 -8.787 0.0708163 -0.0189569 -0.997309
-9.84385 -0.812805 -8.78598 0.0708163 -0.0189569 -0.997309
-9.90627 -0.85386 -8.78963 0.0708163 -0.0189569 -0.997309
-9.65176 -1.10656 -8.76676 0.0708163 -0.0189569 -0.997309
-9.79842 -1.20302 -8.77534 0.0708163 -0.0189569 -0.997309
-9.89131 -1.07982 -8.78428 0.0708163 -0.0189569 -0.997309
-9.7478 -0.959686 -8.77637 0.0708163 -0.0189569 -0.997309
-9.87181 -1.30543 -8.7786 0.0708163 -0.0189569 -0.997309
-9.70238 -1.3499 -8.76573 0.0708163 -0.0189569 -0.997309
-9.8604 -1.4181 -8.77565 0.0708163 -0.0189569 -0.997309
-9.83411 -1.64299 -8.76951 0.0708163 -0.0189569 -0.997309
-9.56093 -1.88701 -8.74547 0.0708163 -0.0189569 -0.997309
-9.8033 -1.86731 -8.76306 0.0708163 -0.0189569 -0.997309
-9.70755 -1.98345 -8.75405 0.0708163 -0.0189569 -0.997309
-9.61151 -2.13032 -8.74444 0.0708163 -0.0189569 -0.997309
-9.81921 -1.7552 -8.76632 0.0708163 -0.0189569 -0.997309
-8.6459 -2.96554 -8.66 0.0708163 -0.0189569 -0.997309
-9.76795 -2.09093 -8.7563 0.0708163 -0.0189569 -0.997309
-9.66217 -2.37369 -8.74341 0.0708163 -0.0189569 -0.997309
-9.74868 -2.20251 -8.75281 0.0708163 -0.0189569 -0.997309
-9.68393 -2.53586 -8.74188 0.0708163 -0.0189569 -0.997309
-9.66014 -2.64653 -8.73808 0.0708163 -0.0189569 -0.997309
-9.47008 -2.66744 -8.72419 0.0708163 -0.0189569 -0.997309
-9.60922 -2.86712 -8.73027 0.0708163 -0.0189569 -0.997309
-9.42461 -3.05763 -8.71354 0.0708163 -0.0189569 -0.997309
-9.52452 -3.19593 -8.71801 0.0708163 -0.0189569 -0.997309
-9.55387 -3.08662 -8.72217 0.0708163 -0.0189569 -0.997309
-9.13129 -2.8647 -8.69638 0.0708163 -0.0189569 -0.997309
-9.23252 -3.35139 -8.69432 0.0708163 -0.0189569 -0.997309
-9.32857 -3.20451 -8.70393 0.0708163 -0.0189569 -0.997309
-9.49407 -3.30492 -8.71378 0.0708163 -0.0189569 -0.997309
-9.37922 -3.44788 -8.7029 0.0708163 -0.0189569 -0.997309
-9.39626 -3.63006 -8.70065 0.0708163 -0.0189569 -0.997309
-9.36151 -3.73777 -8.69614 0.0708163 -0.0189569 -0.997309
-8.16048 -3.06636 -8.62362 0.0708163 -0.0189569 -0.997309
-7.9684 -3.36011 -8.60439 0.0708163 -0.0189569 -0.997309
-7.58422 -3.94762 -8.56595 0.0708163 -0.0189569 -0.997309
-9.14167 -4.13181 -8.67303 0.0708163 -0.0189569 -0.997309
-9.04562 -4.2787 -8.66342 0.0708163 -0.0189569 -0.997309
-9.04465 -4.5855 -8.65752 0.0708163 -0.0189569 -0.997309
-9.32559 -3.84507 -8.69155 0.0708163 -0.0189569 -0.997309
-7.68546 -4.43431 -8.56388 0.0708163 -0.0189569 -0.997309
-7.09152 -4.71632 -8.51635 0.0708163 -0.0189569 -0.997309
-7.15454 -4.59627 -8.52311 0.0708163 -0.0189569 -0.997309
-7.27545 -4.35353 -8.53631 0.0708163 -0.0189569 -0.997309
-7.1092 -5.31557 -8.50621 0.0708163 -0.0189569 -0.997309
-7.02679 -4.83545 -8.50949 0.0708163 -0.0189569 -0.997309
-6.96037 -4.95365 -8.50253 0.0708163 -0.0189569 -0.997309
-9.2116 -4.16485 -8.67737 0.0708163 -0.0189569 -0.997309
-9.13022 -4.376 -8.66758 0.0708163 -0.0189569 -0.997309
-8.90419 -4.81582 -8.64317 0.0708163 -0.0189569 -0.997309
-8.71211 -5.10957 -8.62395 0.0708163 -0.0189569 -0.997309
-8.61607 -5.25644 -8.61434 0.0708163 -0.0189569 -0.997309
-8.76286 -5.20295 -8.62578 0.0708163 -0.0189569 -0.997309
-8.66078 -5.40487 -8.61469 0.0708163 -0.0189569 -0.997309
-8.32793 -5.69707 -8.5855 0.0708163 -0.0189569 -0.997309
-8.13585 -5.99083 -8.56628 0.0708163 -0.0189569 -0.997309
-8.60818 -5.50502 -8.60905 0.0708163 -0.0189569 -0.997309
-8.49999 -5.70369 -8.59759 0.0708163 -0.0189569 -0.997309
-8.27177 -6.09431 -8.57396 0.0708163 -0.0189569 -0.997309
10.6825 5.96661 -7.45732 0.0708163 -0.0189569 -0.997309
10.7439 5.87163 -7.45116 0.0708163 -0.0189569 -0.997309
10.4398 6.01699 -7.47552 0.0708163 -0.0189569 -0.997309
10.6319 5.72324 -7.45629 0.0708163 -0.0189569 -0.997309
